# 3D point list with one line of data per point:
#   POINT3D_ID, X, Y, Z, R, G, B, ERROR, TRACK[] as (IMAGE_ID, POINT2D_IDX)
# Number of points: 433, mean track length: 4.048743335872048
1177 -0.0028056714324415162 0.03688074648646725 0.5849772333085594 38 34 37 0.234703 6 632 7 948 8 1569
68 -0.08055728969473239 0.21284734847374845 0.5253424507243853 202 136 151 0.351177 3 656 2 493 4 553 1 1015
1176 -0.0021254235066318393 0.03126338933891522 0.5870916563323607 44 43 47 0.227435 6 630 7 943 8 913
67 0.32418183015488095 0.20398185031722638 0.6171270867895845 68 60 52 0.600403 3 646 2 1626 4 461 1 516
1175 0.01723640295338433 0.0537268207811628 0.5735183970268157 49 40 33 0.0949409 6 651 7 863 8 1499
66 0.28723511504084775 0.20110578950243657 0.6088013319495109 96 121 143 0.577649 3 644 2 698 5 480 6 392 8 136
1174 0.011318760040093898 0.053834426750283326 0.573463565959748 94 94 89 0.208526 6 654 7 857 8 1503
65 0.28723511504084775 0.20110578950243657 0.6088013319495109 96 121 143 0.577649 3 643 2 697 5 481 6 393 8 135
1173 0.015188633945487237 0.029793488373787178 0.5872998430401337 47 42 44 0.362223 6 580 7 842 8 1489
64 0.31715745642224424 0.1849109198027132 0.6226641678280076 164 178 185 0.605655 3 619 2 701 5 427 1 1092 8 108
1172 0.0034190083217200407 -0.027347937109021784 0.6203869650738488 63 64 68 0.0927196 6 517 7 814 8 1537
63 0.29192745495225786 0.16558039845505107 0.6272339945739381 168 161 172 0.444705 3 597 2 666 4 334 1 458
1171 0.10880539871263104 0.35502858905762336 0.44530108710134386 153 169 197 0.143334 6 882 7 803 8 381
62 -0.08816321543245677 0.15682713263893333 0.5247581571659442 15 32 66 0.302908 3 572 2 421
1170 0.1116334823437365 0.35010321711117515 0.4484735783724688 167 170 174 0.051256 6 875 7 796 8 373
61 -0.01925598536586689 0.14352802866872727 0.5484340405787281 96 111 124 1.13994 3 555 2 1181 5 638 6 1678
1169 0.1116334823437365 0.35010321711117515 0.4484735783724688 167 170 174 0.051256 6 874 7 795 8 372
60 -0.01925598536586689 0.14352802866872727 0.5484340405787281 96 111 124 1.13994 3 554 2 1182 5 639 6 1679
1168 0.025796731952257297 0.00018633138713393797 0.6047892399639105 91 87 78 0.393328 6 537 7 737 8 1468
59 -0.10222824087076593 0.12979713004536242 0.5346251790318763 37 57 86 0.484981 3 534 2 363 4 428 5 1175 9 803
1167 0.1282344446339306 0.35029855278760413 0.4503472587424257 152 172 194 0.491015 1 1239 6 796 7 710
58 -0.11010763655549086 0.12840322151224862 0.5347896722330797 16 44 98 0.397925 3 526 2 362 4 427 5 1196
1166 0.10713562137333246 0.31422056739242615 0.46855888362773596 178 186 177 0.264159 4 806 7 703 8 437
57 -0.07615863868630411 0.10863233815719835 0.5514334712944204 173 195 213 0.180105 3 477 2 299 4 354 5 1137
1165 0.11454124236917486 0.32036850078740126 0.46617801588740204 171 200 212 0.122064 6 789 7 701 8 360
56 -0.08088284915544734 0.10956103935565892 0.5506444179698982 173 193 208 0.213433 3 474 2 297 4 351 5 665
1164 0.11640721212032532 0.3206306618268191 0.465034274097785 171 192 207 0.157245 1 651 7 699 8 358
55 -0.0908696426335056 0.12128203667682036 0.54201366531926 113 73 62 0.317763 3 473 2 364 4 431 5 1171
1163 0.11640721212032532 0.3206306618268191 0.465034274097785 171 192 207 0.157245 1 650 7 698 8 359
54 -0.09636388690078199 0.12540550426740218 0.541352265572755 144 110 65 0.132861 3 471 2 366
1162 0.03174650244390776 -0.006311312840128654 0.6081673477365397 41 44 54 0.191558 6 481 7 657 8 1422
53 -0.09636388690078199 0.12540550426740218 0.541352265572755 144 110 65 0.132861 3 470 2 365
1161 0.02784672847225402 -0.019166627861254865 0.6158616885699109 77 89 104 0.133295 6 473 7 652 8 1457
52 -0.11517951025926075 0.12236066657429441 0.5386903886136986 150 178 205 0.364841 3 461 2 285 4 419 5 1195
1160 0.13385805595007005 0.35058641588971 0.4516512100561314 133 145 169 0.0805747 6 1365 7 635 8 265
51 -0.11461920529266185 0.12039445877866063 0.5426981969221844 166 187 207 0.202214 3 460 2 287
1159 0.08986897565951855 0.033078383332401116 0.6721526327983731 182 47 73 0.423996 6 487 7 615 8 641
50 -0.12160416919584359 0.11675504670203657 0.541117520066871 147 176 206 0.352279 3 457 2 282 4 1171 5 1166
1158 0.14309709075099142 -0.0010935627958957765 0.7066799270780403 118 107 108 0.538221 6 414 7 518 8 1351
49 -0.1238582400935832 0.11253219780239437 0.543781110496773 11 39 97 0.459509 3 456 2 281 5 740
1157 0.1700302822417708 -0.05083499603459103 0.6148952910128412 217 237 251 0.429901 6 238 7 412 8 400
48 0.3631367331002717 0.08049363425280838 0.6115291775361331 76 39 0 0.282031 3 443 2 550
1156 0.2908136989024435 0.16873746848856325 0.6289834483075696 207 200 208 0.211022 6 341 7 378 8 1137
47 -0.06388907367383795 0.0940275694024407 0.5612490890349765 101 113 115 0.199377 3 429 2 305 4 313
1155 0.20895091577024416 -0.040124518144780345 0.616144411259479 162 183 194 0.344418 6 239 7 359 8 229
46 -0.06735037045603402 0.09110438813938954 0.5627312413166524 104 113 115 0.211372 3 424 2 303 4 311 5 614
1154 0.11452153745444736 0.32409958355427926 0.4634467433590881 140 160 174 0.676952 4 824 1 636 6 1358 3 1547 2 1376 1 1186 7 1803 8 1752
45 -0.07282748001485173 0.08641119149255652 0.5651472352093266 98 111 107 0.362377 3 421 2 301 4 307 5 1118
1152 0.04008990603369381 0.14218295405472073 0.6349411864386534 201 219 253 1.37442 5 2152 6 2508
43 0.11000825524643051 0.06502107818816077 0.6583429145160983 114 144 163 0.294176 3 392 2 401 5 475
1150 0.20351150257003556 0.1555000494688084 0.6211314681563785 24 32 33 1.41373 5 2141 6 2492 9 2846 10 2648
41 0.16092232796055836 0.02059506283191289 0.6808973312602615 122 134 138 0.269559 3 361 2 339 4 1074 5 346 6 1149
1147 -0.17442447822599982 -0.08673418074700269 0.7733990548744565 37 41 48 1.14806 5 1586 6 2152 9 1864
38 0.15882760985148447 0.018355813456990028 0.6803430234416231 41 52 58 0.59977 3 356 2 334 1 942 6 1148 7 1346 8 1318
1146 0.16962161944503124 0.4401829496847355 0.4742536039839789 97 102 134 1.71264 1 1515 6 1928 7 2049 8 2041 9 747
37 0.08490753515176488 0.03239196691154631 0.6735251229459136 191 191 202 0.712651 3 346 2 324 4 202 5 421 1 1321 6 1189 7 1782 8 1406 8 1880
1145 0.16962161944503124 0.4401829496847355 0.4742536039839789 97 102 134 1.71264 1 1514 6 1927 7 2048 8 2042 9 748
36 0.08534781148561071 0.030439295535594903 0.6736819055283105 146 38 59 0.473309 3 345 2 325 6 488 7 611
1144 0.14207843233312276 -0.3854752525178554 0.8106139281758681 20 27 31 0.941448 5 1252 6 1782
35 0.07040917293653565 0.029011460279732927 0.6738652469088184 67 61 60 0.4646 3 341 2 321
1143 0.1588456012953661 0.001826140121338269 0.65785286185418 152 169 180 0.781409 1 119 6 1126 7 1302
34 0.020080079169187203 0.0476423714810271 0.5774422452638539 21 22 17 1.12044 3 338 2 245 4 229 5 508 6 586 7 1496 6 582 8 1897
1142 0.19339088701891496 -0.07650304632632363 0.6217071943605903 168 181 179 1.67997 5 195 6 197 7 1243
33 0.019983696434107117 0.04764982507920662 0.577662426267548 21 22 17 1.07611 3 337 2 244 4 230 5 509 6 583 7 1495 8 1898
1141 0.5903249758185141 -0.11875209697289597 0.7470887100361502 57 75 98 0.321199 5 76 6 25 7 31
32 0.015115982781622427 0.04477701985902399 0.5792799427460475 67 69 57 0.101662 3 336 2 243
1140 0.31235459764127566 0.05940320699935499 0.6617852774454476 219 189 64 0.246732 5 2145 6 2499 7 2682
31 0.010746717798200797 0.04588246557523586 0.5777480998098414 17 20 19 0.299675 3 331 2 241 5 510 6 643 7 1499 8 1924
1139 0.31021704276105505 0.11768717484218887 0.6731841422475857 174 153 128 1.092 5 2139 6 2489
30 0.010749373678011891 0.04591202294732709 0.5775656151647565 17 20 19 0.317606 3 330 2 240 5 511 6 644 7 1498
1138 0.12351211898271783 -0.19609303054284913 0.8008994052152183 16 33 38 0.519497 5 2122 6 2488
29 -0.0035761678677030725 0.04869221506829055 0.5772383422331957 93 95 86 0.388843 3 329 2 233 4 223 5 513 6 1260 7 1888 8 2192
1137 -0.11287917564868269 -0.08617558925124964 0.7201169654513389 24 43 56 0.0517277 5 2070 6 2481
28 -0.003083433623910982 0.046184379138277845 0.5831729485078602 18 16 17 0.253648 3 328 2 232
1135 0.34969883799155027 0.05394220406648843 0.6151994320879828 209 189 72 0.397318 5 2123 6 2464 7 2652 8 2788
26 0.16452747062026507 0.015367862995965053 0.6688156483260448 137 126 138 0.500537 3 308 2 337 4 160 5 342 1 181 6 384 7 490 8 482
1134 0.012937818642354765 -0.021946991329302907 0.6234275190898418 44 42 36 0.299335 5 2069 6 2446 7 2646
25 0.08547392293986661 0.008124901787520938 0.6931957682564805 123 53 54 0.382986 3 296 2 256 4 146
1133 0.1376910902322772 0.08804070226697719 0.6544259201624436 25 32 36 0.921683 1 2178 6 2441
24 0.021405106174297087 0.007573686783759366 0.6008114173952275 14 18 16 0.410148 3 291 2 1016 4 1050 5 1006 7 2068 8 2156
1132 0.021716700847618217 -0.04013060096628318 0.6175828700345855 177 168 160 0.73983 5 2064 6 2413
23 -0.0024918235449580667 0.011304109864361724 0.5991964711229967 125 148 159 0.188667 3 287 2 162 4 134 5 457 6 1224 7 1878
1131 0.26643614917827657 0.06231645013150011 0.6916193750782818 174 164 152 0.741792 4 2405 6 2411 7 2603 8 2739
22 -0.0036089808344014485 0.008688667965228495 0.6005218408222758 124 151 160 0.197362 3 285 2 161 4 132 8 1966
1130 0.6255882058264817 -0.40216188835034294 1.2301692590826192 19 33 39 0.436161 5 2095 6 2396
21 -0.007605754390639789 0.013674182738366625 0.5982326437721959 134 156 166 0.192632 3 280 2 160 4 186 5 460 6 1254 7 1881 8 1990
1129 0.17641210440720695 0.3036587330984945 0.5371713967088365 186 206 228 0.840438 1 2132 6 2373 7 2576 8 2679
20 0.16908187612858275 -0.014248538165901646 0.6095963824219938 112 123 130 0.947564 3 252 2 261 4 43 1 860 6 287 7 459
1128 0.22221232338184113 0.09983452209908804 0.6623395852640859 155 144 135 0.997926 3 2616 6 2366 7 2567
19 0.16571319244560587 -0.015158733879226838 0.6171236598478927 36 40 51 0.887345 3 251 2 260 1 57
1127 0.2062007950626257 0.05688329109987892 0.6827744385719101 165 158 150 0.594445 5 1986 6 2365 9 2529
18 0.16081609276811454 -0.017553994774666 0.6171836313274982 121 117 129 0.416778 3 249 2 257 4 1006
1126 0.18023657133518475 -0.0036109256238115086 0.6487586153397346 110 40 40 0.981769 5 2025 6 2360
17 0.030827482355726347 -0.014916706122247953 0.612688340563363 54 72 84 0.145937 3 235 2 130 4 81 6 1182 7 1791
1125 0.15526530396292448 -0.0214491423750359 0.649584508287443 129 41 37 0.219151 5 1982 6 2359 7 2570
16 0.011930983173322605 0.0022399090611985232 0.6044439755884681 14 17 16 0.458615 3 232 2 169 5 416 4 143 6 1580 7 2086 8 2187
1124 0.4440211243794803 0.3198279007355298 0.557588258572779 172 172 168 0.538375 5 2071 6 2355
15 0.011502015747059502 -0.0012519903103047508 0.6052947138634416 59 66 55 0.0996716 3 231 2 174
1123 -0.0028312449848160995 -0.02741947451683678 0.6208967226504946 150 168 187 0.647433 5 1944 6 2325 7 2584
14 0.028566471901060958 -0.010656589231708128 0.610215802132775 125 146 159 0.228525 3 230 2 131 4 83 5 410 6 528 8 1911
1122 0.16321923562944468 -0.03419770816246452 0.6252960590472612 117 37 41 0.603872 5 1936 6 2314 7 2531
13 0.0241910384225942 -0.01139895047568053 0.610686149879966 136 150 160 0.297382 3 229 2 129 4 84 5 409 6 529 7 1441 8 1913
1120 0.33843619412165854 0.019695490637832085 0.6998637400531766 142 133 124 0.637694 5 1886 6 2309 7 2561
11 0.008626126279354305 -0.010141948263151613 0.6110262738428708 22 27 29 0.372072 3 226 2 123 4 79 5 1001 6 1577 8 2183
1119 0.11687327619040148 0.33803524194372536 0.4558637781306984 154 172 181 0.419338 4 2303 6 2282 8 2528 9 2278
10 0.008589200982625845 -0.010085746419407135 0.6112036180754181 22 27 29 0.31248 3 225 2 124 5 1002 6 1578 8 2184
1118 0.21713359579468777 0.43127804169875844 0.4862367623445582 178 176 168 0.928476 4 2308 6 2277 7 2488 8 2591
9 0.0021170532015497728 0.005091313030516262 0.6015267914733774 10 21 30 1.13653 3 224 2 1007 5 450 7 1839 8 2350 7 2231
1117 -0.08012780822721552 0.03783540676824272 0.5930853773512077 99 81 88 0.207504 5 1834 6 2232 9 2558
8 0.006767335971048017 0.0018485608873564546 0.6029078489751473 15 20 25 0.581306 3 223 2 168 4 140 6 1221
1116 0.15878905675745245 0.0541129514362792 0.6750218397297794 151 143 140 0.97069 1 2074 6 2202 7 2487 8 2648
7 0.005258753401574503 0.0011406918115113816 0.6073988560621678 15 20 25 0.411317 3 222 2 167 6 1213
1115 0.1597802996417872 -0.021987086547096222 0.6239972481460931 126 122 138 0.903605 5 1888 6 2193 7 2484 8 2599 9 2523
6 -0.00044230336985649744 0.0035928570737418287 0.6034030420496032 111 130 141 0.142502 3 221 2 164 4 129 6 1215 7 1840 8 1961
525 0.1884603746599292 0.009520643734439803 0.6770523026821332 106 120 129 1.95861 3 2646 2 2283 4 2398 5 2026 6 2361 9 2626
518 0.3715018977698002 0.08583803549461361 0.6253371823475621 147 34 0 1.46901 3 2612 2 2288 4 2314 5 1940 6 2179 7 2294
513 -0.17951005969653663 -0.12085538243619919 0.7489118430161541 15 47 77 0.66718 3 2596 2 2238 4 2353 5 2033
512 -0.17951005969653663 -0.12085538243619919 0.7489118430161541 15 47 77 0.66718 3 2595 2 2237 4 2354 5 2032
81 0.0683646595232457 0.31033955592653467 0.4656048598894591 90 135 150 0.164145 3 826 2 754 4 777
27 0.19723848580331205 0.003838663033935852 0.6494876971846515 132 116 109 0.291273 3 312 2 344 4 102
1 0.008539981532578282 -0.023435997494362378 0.6175751594157791 52 56 49 0.154359 3 168 2 120
1110 0.1552755847879997 -0.028383730235349115 0.622282920564802 84 79 91 0.199527 5 1807 6 2099 7 2323 9 2236
2 0.008539981532578282 -0.023435997494362378 0.6175751594157791 52 56 49 0.154359 3 169 2 121
1111 0.011646375665823898 -0.00800824869233423 0.6089632549444455 67 66 51 0.415123 3 2190 6 2112 8 2566
3 0.021289703912827862 -0.02154912339889231 0.6163157583440659 62 62 56 0.325565 3 172 2 125 4 74 7 1809 8 1909
1112 0.027872601882026626 0.02523137224666308 0.5904663371632982 45 41 44 0.877972 2 1719 6 2114 9 1725
4 0.03773311255874439 -0.02674239651209196 0.6196090493098246 32 29 31 0.181644 3 175 2 132
1113 0.15837953722528994 -0.055038140019505744 0.6335489913763854 137 77 73 0.905325 5 1806 6 2185 7 2482 8 2647
5 0.037737995950655114 -0.02645915978126994 0.6192389396071171 32 29 31 0.482336 3 176 2 133 4 1512 5 1322
1114 0.1597802996417872 -0.021987086547096222 0.6239972481460931 126 122 138 0.903605 5 1889 6 2192 7 2483 8 2598 9 2522
12 0.02515041074919581 -0.02052917987788926 0.6161161389905223 136 149 161 0.277727 3 227 2 127 4 1027 5 992 6 1181 7 2061 8 2155
39 0.15835726210429366 0.019908475063973502 0.6827213209756882 46 51 57 0.358413 3 359 2 335 4 163 5 345
40 0.1692189537962522 0.0173160793477172 0.6685440631969747 135 122 130 0.213531 3 360 2 341 4 1070 5 344 6 381 7 489 8 481
42 0.16298363338813782 0.02881098419076635 0.6932051923461329 132 132 129 0.255596 3 363 2 404 4 166 6 423
44 -0.0909853019156017 0.10246641331834161 0.5545022975793704 138 99 85 1.11233 3 412 2 295 4 347
142 0.45009709199892894 -0.10798378944203722 0.7898363806988702 104 99 95 0.394744 3 1094 2 1750
174 -0.11830573781754729 0.11954543397453293 0.5393020977056736 152 177 207 0.355595 3 1261 2 284 4 1175
175 -0.07916235307911108 0.10859035812147456 0.550802914023141 87 105 134 0.687752 3 1263 2 1103 4 349 5 1138
180 -0.06894175650413412 0.11821492386271627 0.546500388729166 173 198 215 0.296298 3 1270 2 377 5 1144
187 0.23516102256406715 0.18494004880709297 0.6097925748338456 153 178 195 0.507955 3 1328 2 1598 4 1616
198 0.3040502611867754 0.21934482992128068 0.6041312671590972 68 58 52 0.313813 3 1362 2 1625 4 460 1 561
214 -0.04049008714974633 0.2998094208432516 0.4800160064386337 98 70 83 0.538276 3 1436 2 1282 8 2201
219 0.2091376840924438 0.30135068786911007 0.5412768728555367 88 79 75 0.402172 3 1460 2 1389
221 0.05077271136934372 0.3059753456821084 0.4658773017539522 46 37 56 0.0144429 3 1483 2 743
227 0.08379000946608964 0.3070385543419695 0.4698911072103985 4 32 70 0.487163 3 1497 2 1341 4 1302 1 1138 6 1690 8 1331
232 -0.02934550142113494 0.3265035831510324 0.47238592076198255 199 165 181 0.239691 3 1513 2 1307 4 1413 1 498
241 0.08055814643015533 0.3268094376970198 0.45947663140921147 152 139 102 0.319254 3 1525 2 1353 4 1391 1 612
242 0.11126251590560604 0.3173005312378742 0.46719153389273305 94 109 134 0.338518 3 1526 2 1367 4 1355 1 626 6 1353 7 1427 8 1232
245 0.10062443215903327 0.3220399915975457 0.4644859634271072 166 187 208 0.350086 3 1531 2 876 4 1351 1 1170 6 1394 8 1288
247 0.11131392003098207 0.3222002011216344 0.46459648229666567 162 187 210 0.172752 3 1535 2 1369 4 1370 1 1181 6 1665 7 1429 8 1238
248 0.11131392003098207 0.3222002011216344 0.46459648229666567 162 187 210 0.172752 3 1536 2 1370 4 1371 1 1182 6 1666 7 1430 8 1239
250 0.11430221318617623 0.3184836828569462 0.46657725459448934 162 187 211 0.2889 3 1540 2 1368 4 1360 1 1188 8 1230
251 0.115449381917485 0.3210667401570926 0.46530585922685513 162 188 208 0.21271 3 1541 2 1374 4 1366 1 1185 6 1661 7 1799 8 1750
252 0.12272306565819553 0.3166057188098747 0.46853660850673967 149 174 197 0.419693 3 1543 2 1380 4 1363 5 1208 1 1192 6 1315
253 0.1266914641372263 0.31864046543934316 0.4695681179559523 56 74 103 0.31331 3 1544 2 1381 4 1373 5 1449 1 1196
254 0.1267848482983261 0.31830805209524476 0.4690857759128404 56 74 103 0.157814 3 1545 2 1382 1 1197
255 0.11452153745444736 0.32409958355427926 0.4634467433590881 144 165 184 0.676952 3 1546 2 1377 4 823 1 635 1 1187 6 1357 7 1802 8 1751
257 0.11410773424517019 0.3282436127950115 0.46095878369088755 171 158 117 0.142779 3 1548 2 1375 1 708
542 0.1672647402965395 0.1476891926179182 0.6247237597847412 154 187 202 0.898391 3 2686 2 2311 4 2436 1 2202 6 2444 7 2664 6 2471 8 2771
543 0.10083690254392094 0.16856012425601588 0.6023878105734263 157 188 204 1.07015 3 2687 2 2308 4 2439 5 2109 1 2200 6 2450 6 2476 7 2671 8 2780 9 2769 10 2559
544 0.10083690254392094 0.16856012425601588 0.6023878105734263 157 188 204 1.07015 3 2688 2 2309 4 2440 5 2108 1 2199 6 2449 6 2475 7 2670 8 2781 9 2768 10 2558
545 0.18887075092751468 0.1687057692779147 0.6123644945734938 15 25 28 1.43389 3 2689 2 2312 4 2437 5 2102 1 2203 6 2437 7 2638 8 2744 1 2184
546 0.18887075092751468 0.1687057692779147 0.6123644945734938 15 25 28 1.43389 3 2690 2 2313 4 2438 5 2103 1 2204 6 2438 7 2639 8 2745 1 2185
549 -0.11734276720216937 0.2194510651137245 0.5670980217673476 161 34 37 0.914925 3 2695 2 2286
550 0.0897139065479675 0.23240404797306521 0.5734061646864114 19 29 34 1.56459 3 2696 2 2317 4 2445 5 2113
551 0.16236164347108764 0.2932159850283508 0.5407319891265506 16 23 27 1.69335 2 2296 4 2418 5 2049 6 2423 7 2610 8 2713 9 2641
552 0.16236164347108764 0.2932159850283508 0.5407319891265506 16 23 27 1.69335 2 2297 4 2419 5 2048 6 2424 7 2611 8 2714 9 2642
553 -0.05299585411831542 0.3056317947775118 0.48405294375149915 150 19 21 1.01488 3 2701 2 2318 4 2448 1 2188
554 0.17774175778360066 0.3203059591015271 0.5292063274818182 169 14 19 1.67633 3 2702 2 2321 4 2446 5 2115 1 2189 6 2453 8 2712 9 2704
555 0.34972882373135294 0.05345129466914719 0.6159276571974768 180 162 56 0.342788 3 2708 2 2340 4 2455
556 -0.0755946497573866 0.11871868429140153 0.5620004460008896 110 129 147 0.914503 3 2711 2 2302 4 2457
557 0.2525724565643569 0.18636479981543239 0.6184404621929425 13 24 24 1.28593 3 2713 2 2343 1 2219
558 0.10838902529708505 0.2114440158509824 0.5800964116041039 160 187 207 1.60305 3 2714 2 2326 5 2126 1 2205 6 2477 2 2314 7 2672 8 2775 9 2817 10 2606
560 0.15156849061296382 0.20838804059737645 0.588350200668651 13 23 26 0.422281 3 2717 2 2328
561 0.22920157096213753 0.21551607931618819 0.5935317365065564 15 23 24 0.574728 3 2718 2 2332 4 2458
562 0.18981915704070268 0.29382940759117154 0.5398118552823193 156 181 202 1.2927 3 2720 2 2334 4 2459 5 2129 1 2215 6 2474 8 2769
563 -0.15159847635276652 -0.10778159988222477 0.7677497414956291 6 22 32 0.811924 3 2722 2 2337 4 2471
565 0.19801468809649034 0.19875833444359714 0.5970443517405862 149 180 196 1.63031 3 2725 2 2342 4 2469 5 2142 1 2218 6 2493 9 2848
566 0.09480034475392726 0.07641017620647757 0.6219530774269724 155 183 200 0.976042 3 2733 2 2344
567 0.3789649200389792 0.10543414482338534 0.6581201633061355 87 77 67 1.79847 3 2734 2 2350 4 2473 1 2225 5 2137 6 2466
569 0.11768203442965126 0.18955099885332433 0.6003650582398788 159 186 206 1.63636 3 2737 2 2348 4 2476 1 2222 8 2806
571 0.31423084821750136 0.058178246691643815 0.66491321847458 185 159 63 1.69665 3 2741 2 2357 5 2144 6 2500
572 -0.05565430413567995 0.15866654359197288 0.5493618850417659 39 45 58 0.865253 2 2355 4 2484
573 0.15826473467861676 0.24859377726025095 0.5667955941630518 15 21 21 0.630979 3 2747 2 2361 4 2489 1 2243
574 -0.027943710922130157 0.3093757285757338 0.49777356154978886 57 38 51 0.672143 3 2748 2 2360 1 2237
575 -0.027943710922130157 0.3093757285757338 0.49777356154978886 57 38 51 0.672143 3 2749 2 2359 1 2236
576 0.16519315404388485 -0.01828676058190154 0.6104205618988563 59 32 44 0.484144 2 258 3 1135 4 39 5 271 6 284 8 1268
577 0.02440847787293488 0.04124915473446594 0.5817156415534492 16 19 12 0.707465 2 248 4 199 5 1029 6 1240
578 0.022054768645508014 0.053092236853395515 0.5743768459205958 87 89 77 0.257507 2 246 4 238 5 517 6 1243 7 1854 8 2135
579 -0.07234462393048607 0.08899167858643403 0.5627278143749607 6 44 80 0.273208 3 416 4 309 5 1120
580 -0.06744795262070621 0.09112751999580876 0.5626472812452049 102 116 118 0.249445 3 425 4 310 5 615 6 1412
581 -0.0639001255607938 0.09408154373408553 0.5609201026325698 97 109 110 0.209489 3 428 4 312 5 1121 6 1415
582 0.1622374168347622 0.13021178999006253 0.6338856883975985 21 37 51 0.761311 2 509 4 327
583 -0.0803257997834556 0.11213467256615295 0.548734754712178 82 72 72 0.145083 3 475 4 353 5 671
584 -0.07551128940073511 0.11111258720659256 0.5507643609291089 75 99 130 0.264851 2 372 4 356 5 668
585 -0.07551128940073511 0.11111258720659256 0.5507643609291089 75 99 130 0.264851 2 373 4 357 5 669
586 -0.07071631258565753 0.11248079367701833 0.5489266634469153 164 194 216 0.177673 3 481 4 358 5 679
587 -0.06920580236148241 0.11167460564403735 0.5501612191913633 103 129 148 0.369067 3 480 4 359 5 677
588 -0.0742087945372484 0.11405033297183362 0.5473399894436414 165 194 217 0.349091 3 478 4 361 5 673
589 -0.07147143918743164 0.11616732620190379 0.5465372283523521 163 193 213 0.26864 3 484 4 362 5 686
590 -0.05853027927692743 0.12067803820365182 0.5433124762204281 94 121 141 0.241498 3 497 4 368 5 697
591 -0.04787437543355765 0.11904852742923115 0.5472543159013479 0 23 65 0.930804 3 1748 4 373 5 1418
592 -0.04987939334385034 0.120948766597299 0.5459426539688358 139 136 110 0.172307 3 499 4 374 5 627
593 -0.11506299424174171 0.1223709473993696 0.538139507736752 150 179 209 0.391602 3 462 4 418 5 1194
594 -0.11240111728268547 0.12471240531024852 0.5365973839754706 146 174 208 0.330506 3 463 4 420 5 782
595 -0.1083144893152898 0.12323796364737893 0.5385413166501081 48 59 86 0.338442 3 464 4 422 5 1167
596 -0.10853467031898385 0.12515790773017424 0.5377976703030013 150 182 206 0.354584 3 465 4 424 5 1168
597 -0.10750059066350239 0.12685681407385258 0.5361535950263907 49 77 106 0.417095 3 528 4 426 5 748
598 -0.06501962173794179 0.1215142119764355 0.5437511247569704 165 193 207 0.285682 3 494 4 433 5 1145
599 -0.06264783539309102 0.12370145751118627 0.5421970066997679 166 194 204 0.316478 3 495 4 436 5 700
600 -0.09917397908800585 0.13565891380907755 0.5311982373401399 12 37 87 0.374168 3 535 4 476 5 786
601 -0.08148299231921269 0.15304378901125634 0.5285920481835743 91 114 138 0.357952 3 573 4 484 5 794
602 0.021548009642842494 0.1906244883382608 0.578442055502418 167 199 216 0.197467 2 529 4 527
603 -0.08854360596023951 0.24682461861189203 0.5016203035987629 88 59 63 0.214262 2 559 4 615 1 344
604 -0.08974988943573071 0.24940938938288423 0.5002572375408748 109 79 75 0.241842 2 560 4 621 1 343
605 -0.06522549526007286 0.2562615592955112 0.5002486701866454 151 161 187 0.179583 3 712 4 633 1 371
606 -0.07032872548032214 0.2628001640433442 0.4963445268643348 92 85 116 0.38822 3 708 4 663 1 369
607 -0.07032872548032214 0.2628001640433442 0.4963445268643348 92 85 116 0.38822 3 709 4 664 1 370
608 -0.06691369241096451 0.27019122053699673 0.49311634779071906 93 73 99 0.135691 3 735 4 665 1 397
609 -0.06691369241096451 0.27019122053699673 0.49311634779071906 93 73 99 0.135691 3 736 4 666 1 398
610 0.08758663249282211 0.3046465490411375 0.47141095585068354 95 102 101 0.351379 2 766 3 834 4 702 1 583 8 506
611 0.11983929422459934 0.3125473631114358 0.46982428184740954 94 119 140 0.292217 2 828 3 850 4 717 8 340 7 1412
612 0.17479544466413027 0.018521334740700897 0.6685440631969747 139 128 135 0.214911 2 342 3 1196 4 1071 5 347
613 0.07532109413684374 0.026971144870015364 0.6774129882951885 179 178 187 0.416436 2 1115 4 1092 5 1007 6 1187 7 613 8 673
614 -0.08138840872852077 0.08330758174943545 0.5655182016474571 97 152 172 0.504239 3 1235 4 1139 5 1410 9 675
615 -0.07852271441234848 0.10636627296353764 0.5509519859867316 165 193 210 0.212179 3 1264 4 1160 5 1430
616 -0.10490382559658913 0.12905348369825562 0.5352060456486256 162 192 213 0.449661 3 1288 4 1176 5 1444
617 -0.06059946667039788 0.12333134780847875 0.5427196153077577 65 95 128 0.25284 3 1274 4 1186 5 1148
618 -0.08413553086215896 0.1436265532423647 0.5269779586467664 159 147 99 0.530069 3 1293 4 1199 5 1627
619 0.22117396004924497 0.26872705969920235 0.5612113926763674 110 137 161 0.82354 2 785 3 1396 4 1221 5 591 1 595 6 502 7 503 8 165
620 -0.08746668953361132 0.20576043305523753 0.5281054224633478 190 140 161 0.468899 3 1343 4 1227 2 1197 1 1004
621 -0.08011084486584143 0.2365335127116076 0.5079729967598193 185 141 122 0.284656 3 1371 4 1247 1 1024
622 -0.07110381401745061 0.23554655350438752 0.5100154540080942 131 51 46 0.732857 3 1808 4 1248 9 871
623 -0.06073465952013688 0.2761772309370373 0.49101820273995345 111 78 109 0.191817 3 745 4 1286 1 402 9 940
624 -0.03388431434475522 0.2828314949669665 0.49393281664877525 93 86 104 0.57742 3 1408 4 1290 8 1938
625 -0.024478473156988596 0.283838159088914 0.4945847923056281 95 93 109 0.430856 3 1415 4 1294 1 451 8 1931
626 -0.029332393369164045 0.28963568769590914 0.5038795149090401 85 79 94 1.44472 3 1442 4 1296
627 -0.017004570347938362 0.2920970885659988 0.49008007745184057 95 82 92 0.529314 3 1446 4 1325 2 1299
628 -0.05087680472323021 0.030595135709026618 0.5754057851635396 90 81 76 0.520973 2 1430 3 1154 4 1541 5 1068 6 1631 9 568
629 -0.011286032746937813 0.0408492306390403 0.5826520533707162 21 21 23 0.229026 2 1070 4 1553 5 1368 6 1873 7 2106 8 2369 9 494
630 -0.0735484228732508 0.09114551143969038 0.5619027781626752 99 150 173 0.283236 3 1730 4 1584 5 1415 2 1105 9 681
631 0.16569006058918664 0.13133154318783738 0.6377598459801065 163 190 204 0.218694 3 1762 4 1589
632 -0.05923888514523623 0.12625538580695284 0.54109096126876 148 180 193 0.560123 3 1759 4 1607 5 1615 9 1402
633 -0.09288811128993833 0.13963930658402937 0.5289930003615075 94 127 152 0.361418 3 1756 4 1622 5 1635
634 -0.07310814653940495 0.23677082842376035 0.5091227356973969 198 147 122 0.214784 3 2080 4 1663 1 1413
635 -0.07310814653940495 0.23677082842376035 0.5091227356973969 198 147 122 0.214784 3 2079 4 1664 1 1414
636 -0.07962387645144568 0.24238073197313284 0.5042136417239845 174 146 131 0.465883 3 1806 4 1672 1 1410 9 1512
637 -0.07155736975035193 0.24442404595683068 0.5049281590667115 61 41 57 0.599389 3 1807 4 1676 1 1411
638 -0.07572393113270735 0.2532098677190199 0.49887275309741325 55 58 82 0.741607 3 1385 4 1677 1 1425 9 1517
639 -0.061755802470732035 0.2575278142506078 0.4994184935618223 134 148 171 0.116899 3 1824 4 1679 9 927
640 -0.06844750583864344 0.2641735109263076 0.49529930964835517 176 186 212 0.118836 3 1389 4 1692 9 1522
641 -0.06575367264831174 0.26532324986388517 0.4951545213618793 124 55 86 0.293592 3 1825 4 1693 1 1430 9 933
642 -0.07420382547179537 0.2729490518634216 0.4910524721568708 202 183 209 0.182989 3 1836 4 1695 1 1437 9 1529
643 -0.06872148982689776 0.2713940770707962 0.49253205423227797 142 49 78 0.116598 3 1399 4 1696 1 1040
644 -0.1736876857622765 0.3017841959931147 0.4859172000318038 0 0 0 0.263233 2 1579 3 1420
645 0.16379924551077107 0.021551265237449647 0.6809016149373762 41 47 55 0.643577 2 1520 4 1815 3 2012 5 1317 3 1699 1 1346 6 1544 7 1757 8 1804 9 1695
646 -0.07992184903154216 0.03731845261404428 0.5942077007552514 68 59 60 0.717542 3 1175 4 1832 5 1835
647 -0.08918787099828596 0.11844195874979381 0.5434923906592443 163 147 114 0.329287 3 2042 4 1872 5 1757
648 -0.09956550717628673 0.13296962131648737 0.531808232961269 122 150 172 0.439038 3 2047 4 1874 5 1634
649 -0.08901395370743033 0.12577304376384094 0.5387186608826554 183 179 159 0.455978 3 2043 4 1875 5 1759
650 -0.08956140764268522 0.14387157957332386 0.5258462111530705 120 148 171 0.378537 3 2050 4 1882 5 1637 9 1458
651 -0.08937720952675439 0.14381332156456433 0.5257776723192358 120 148 171 0.21511 3 2049 4 1883 9 1459
652 -0.11013676555987062 0.24170476772443783 0.5009888895920604 190 153 134 0.643659 3 2075 4 1910 1 1393 9 1913
653 -0.07113979690521384 0.255938570041065 0.499760330995573 150 184 204 0.3854 3 2085 4 1911 1 1426 9 1888
654 -0.05039823231597922 0.2760016001753358 0.4923641340893829 84 68 91 0.694794 3 2095 4 1922 1 1440 8 2372 9 938
655 0.0044336400831008985 -0.004400852818465211 0.6070690129243381 18 25 29 0.89849 2 2007 3 2339 4 1991 5 1703 6 2119 7 2499 6 2211 8 2666 9 2046
656 0.2968828126385087 0.10429897038799765 0.6709223607310397 144 125 96 0.633845 3 2046 4 2007 5 1539 6 1982 7 2175 8 2032
657 -0.08622099622866514 0.10283823649189501 0.5524881126000524 78 48 52 0.464846 3 2216 4 2019 5 1748
658 0.3095950528440049 0.17549625424009038 0.6228912027150851 130 121 109 0.358584 2 1812 4 2025 1 1768 1 1891
659 -0.07011094333581229 0.25186993351755094 0.5004722781320312 56 55 72 0.442088 3 2393 4 2047 1 1746 9 1887
660 -0.06586187833222831 0.2533092490280802 0.5011765146496832 136 153 174 0.488511 3 2273 4 2049 1 1624 9 1516
661 -0.06684738108922941 0.2830216902308579 0.4870258156690805 173 181 198 0.30201 3 2278 4 2064 1 1749 9 2167
662 0.00321125854901275 0.04466804311322678 0.5794924131309352 15 18 19 0.290653 2 1901 3 2349 4 2113 5 1823 6 2213 7 2506 8 2630
663 -0.09424432346444302 0.09524070676131538 0.5595964464041365 79 49 47 0.341007 3 2359 4 2118 5 1845
664 -0.023597235100958576 0.14346977065996774 0.5475858725100234 30 40 45 1.49698 3 2240 4 2125 6 2156
665 -0.07424434905730017 0.2760735659508623 0.4896482827986818 177 183 204 0.383334 3 2401 4 2147 1 1873 9 2334 2 1948
666 -0.14642208092739867 0.2786737579594673 0.52113330959151 149 140 140 1.10543 3 2396 4 2152 1 1866
667 -0.14642208092739867 0.2786737579594673 0.52113330959151 149 140 140 1.10543 3 2397 4 2153 1 1865
668 0.11894828938474787 0.3311470891433352 0.4588212288106669 139 163 178 1.04687 2 2095 3 2430 4 2158 1 1910 6 2148 7 2348
669 -0.055251809833985505 0.1214285384341421 0.5455665471181677 150 183 196 0.420144 3 2469 4 2210 5 1998
670 -0.08520987708251833 0.14793079200718562 0.5276025187700855 12 34 76 0.517846 3 2475 4 2219 5 1921
671 -0.07886729339945257 0.26785061936154075 0.49289873699329373 132 135 161 0.384795 3 2490 4 2233 1 1962 9 2473
672 -0.12769298784663624 0.09753418748850996 0.5523655994345728 183 156 64 1.03552 3 2531 4 2285 5 2003
673 -0.020727771148925385 0.1523549737312173 0.5503505577198318 100 104 110 0.598615 3 2577 4 2330 5 1999 9 2651
674 -0.10622748182502233 0.11898512900793404 0.5389362716800807 153 138 111 0.906898 2 2254 4 2372 5 2084
675 0.13757628768560407 0.0916158591868812 0.6547223506187788 16 27 28 1.46545 3 2682 4 2432 1 2195
676 0.13769451717396897 0.09089620143161654 0.6548045972193804 16 27 28 2.02578 3 2681 4 2433 1 2196 6 2442
677 0.037028961714634843 0.19406428106134116 0.5978916630738681 18 30 36 0.319599 3 2691 4 2443 5 2081
678 0.037028961714634843 0.19406428106134116 0.5978916630738681 18 30 36 0.319599 3 2692 4 2444 5 2082
679 0.2373028611214024 0.030988719962322546 0.7048824961607246 92 93 84 0.666926 3 2730 4 2472 5 2138
680 0.0314001243124155 0.1462121807487798 0.5872227368520697 161 187 203 0.0724667 3 2735 4 2475
681 0.1298819468522329 0.1205118315316026 0.6351844992987666 15 24 28 1.37324 3 2742 4 2482 5 2155 6 2506 9 2890
682 0.1573531681886149 -0.024380291277520345 0.6142698741540993 138 129 134 0.673051 3 180 4 13 5 267
683 0.1608974826332933 -0.01931330096566118 0.6145346053997859 45 38 50 0.805363 3 246 4 32 5 301 6 330
684 0.1608974826332933 -0.01931330096566118 0.6145346053997859 45 38 50 0.805363 3 247 4 33 6 331 5 302
685 0.15650842706160187 -0.019787332675170622 0.6232655960949074 148 128 135 0.423266 3 245 4 34 5 299 6 329 7 461 8 420
686 0.16312499473292194 -0.018600754114406887 0.6117579258940565 133 131 138 0.400904 3 248 4 38 5 272 6 283 7 458
687 0.1709221438170452 -0.014757696027751383 0.6081562101760416 32 30 38 1.13102 3 255 4 42 1 58
688 0.1822927363502266 -0.013584739560212306 0.6035306956276203 136 122 127 1.04481 3 256 4 44 1 124
689 0.003826677305369004 -0.030827139661557174 0.6213550761017643 35 36 43 0.429335 3 165 4 64 5 401 6 1197 7 1832 8 1953 9 414
690 0.03088436958780917 -0.015009918936263184 0.6127491687783913 67 85 99 0.169195 3 236 4 82 6 1183 8 1890
691 0.035959755906813086 -0.019612387301807477 0.6157109031354744 148 171 178 0.256255 3 237 4 86 5 381 6 474 7 1396 8 1884
692 -0.00895485566113412 0.010635599213846244 0.5990174134196035 137 161 169 0.215551 3 278 4 126 6 1253 7 1877 8 1991
693 -0.008989639119305245 0.010602529226520987 0.599256442602602 137 161 169 0.15167 3 277 4 127 5 447 6 1252 7 1876
694 -0.003470566659472215 0.0064276917799800225 0.6015739119216388 47 65 77 0.221674 3 283 4 128 5 453 7 1872 8 1963
695 -0.00729216352378322 0.00820002891675803 0.6008636782560265 134 161 172 0.154613 3 276 4 130 5 446 6 1218 7 1875 8 1987
696 -0.003742271731501536 0.008635721716091168 0.6005518265620784 136 156 169 0.218216 3 286 4 133 5 454 6 1217 7 1873 8 1965
697 -0.004487288855285032 0.013841331819381068 0.5975309774608129 132 156 170 0.179066 3 281 4 135 5 461 6 1225 7 1880 8 1968
698 -0.00441944397714288 0.01397506821890108 0.5969578214628698 132 156 170 0.147603 3 282 4 136 5 462
699 0.005620467097137281 0.005583498963637675 0.6013948542182456 18 21 20 0.63413 2 166 4 144 5 451 3 288 6 1222 7 1838
700 0.15332651170082462 0.008088105001105919 0.671945302826023 151 136 150 0.216181 3 303 4 153 5 335 6 1138 7 1329 8 1315 9 300
701 0.15319885812280742 0.007873998251560457 0.6718116521000453 151 136 150 0.516834 3 302 4 154 5 334 1 117 6 1137 7 1328 8 1314 9 299
702 0.15678515260320958 0.01795486127905687 0.682101044529484 125 133 139 0.298349 3 353 4 158 5 340 6 417 7 525 8 492
703 0.15678515260320958 0.01795486127905687 0.682101044529484 125 133 139 0.298349 3 354 4 159 5 341 6 418 7 524 8 493
704 0.16473565732803805 0.015494574165017006 0.6694950395164315 141 130 138 0.208497 3 309 4 161 5 343 8 483
705 -0.009739282614372586 0.013432154981387742 0.5983294548749873 21 38 52 0.191158 3 279 4 185 5 449 6 1256
706 -0.01407076556564282 0.042836856820247425 0.5806610002478173 61 70 62 0.372994 3 321 4 220 5 501 6 1622 7 1901 8 1993
707 -0.014079161572787576 0.04273473395783368 0.5812384399228749 61 70 62 0.302572 3 322 4 221 6 1623 7 1902
708 0.008020482874173729 0.04332493899069298 0.5798102619728438 69 74 62 0.252661 3 326 4 228 5 504 6 1258 7 1852
709 -0.08874665225547489 0.06944097623507782 0.5743554275350223 107 120 108 0.16942 3 1210 4 292 5 1098
710 -0.08874665225547489 0.06944097623507782 0.5743554275350223 107 120 108 0.16942 3 1211 4 293 5 1099
711 -0.0946581266737202 0.0751486332962071 0.5704033070290273 94 149 197 0.485844 3 376 4 294 5 602
712 -0.07896196266368678 0.08035321531698948 0.5690231062626805 99 112 121 0.163891 3 413 4 300 5 606
713 0.32660639140178443 0.192753475864252 0.6162934832230696 90 83 75 0.0884795 2 703 4 396 1 519
714 0.22714968962421034 0.26178664603801316 0.5634860252242575 111 136 157 0.480627 2 790 4 543 1 545
715 0.22714968962421034 0.26178664603801316 0.5634860252242575 111 136 157 0.480627 2 791 4 544 1 544
716 0.43755191520090486 0.3377850752002286 0.5593222910687977 128 130 113 0.811898 3 943 4 565 1 1273
717 -0.09020567268073165 0.2474191929954083 0.5005725161765145 187 166 154 0.348306 2 557 4 617 1 342
718 0.08504838245529525 0.30519400297639243 0.4710194277624027 93 106 96 0.127762 3 833 4 701 1 581
719 0.08763546641192935 0.3045865775615322 0.47147521100740364 95 102 101 0.0997156 3 835 4 703 1 582
720 0.09194227538301908 0.30383093691850427 0.4723602186992945 93 103 93 0.281938 3 837 4 710 1 584 8 504
721 0.11979474398260676 0.31243941444814616 0.4697763046637252 94 119 140 0.268984 3 849 4 716 8 341
722 0.04225144950575655 0.31105235979841583 0.47087035579881215 101 146 185 0.307538 3 820 4 770 1 1107
723 0.06528032632714065 0.31490509899535046 0.46255402504839077 12 43 94 0.151366 3 877 4 785 7 1000
724 0.07175261975323861 0.30989062656491717 0.4665926758321022 69 155 200 0.417531 2 1326 4 789 1 1133 3 1882 7 1516 8 1362
725 0.08048335342773318 0.30749176738070166 0.46935479083564174 13 28 56 0.484126 2 759 4 791 1 576 8 512
726 0.08120609543052038 0.30930204932936145 0.4686060040759973 62 143 192 0.233125 3 842 4 792 1 575 6 1392 7 1513 8 1333
727 0.0879378940162251 0.3221333757586455 0.4630046678808541 144 135 93 0.260923 2 1343 4 802 1 1163 6 1395 7 1517
728 0.11795447629414431 0.3155502207688199 0.46815022083099633 89 116 141 0.371791 3 1538 4 815 1 646 6 1345 7 1418 8 1226
729 -0.04203846507961513 0.31864817605814955 0.47580086815779793 146 22 40 0.430826 3 859 4 844 8 1619
730 0.05192219328629441 0.3194912037143167 0.460002666958893 134 154 180 0.586664 3 869 4 853 7 1579 8 619
731 0.09716236431495659 0.33055251475981895 0.4600806298823801 73 40 25 0.158101 3 968 4 861 1 618 6 1396
732 0.10684004765242021 0.33557983822159626 0.457143740852562 111 71 46 0.141112 3 1576 4 866 1 704 6 1397
733 0.11106118308121653 0.3309277648750641 0.4593446941540797 75 55 33 0.182287 3 973 4 868 1 707 8 364
734 0.105204539730039 0.34078279244507503 0.4540860521281101 160 150 107 0.441536 2 937 4 871 6 867 7 789 8 375
735 0.11314904730690693 0.33890825533969526 0.4551329828149356 95 97 81 0.255226 3 979 4 872 1 710 6 864 8 366
736 0.11253648147950905 0.3438567591425626 0.45279837878744017 171 176 175 0.539427 3 977 4 873 8 374
737 0.16095659737747572 -0.02142978015447759 0.6126420768505245 135 126 130 0.730482 3 1116 4 1005 5 962 6 1077 7 1292 9 231
738 0.17275984129923885 -0.012740169780283866 0.6103134699709896 110 118 130 0.4474 2 263 4 1008 5 276 6 1078 7 430 8 313
739 0.001515933359402289 -0.029629851908006762 0.6214921537694338 144 173 181 0.395192 3 164 4 1023 5 996 6 1571 7 2081 8 2205 9 415
740 0.14882008337619124 0.0014931356297980128 0.6731961365435069 75 46 62 0.482446 3 300 4 1031 5 970 6 1538 8 2102 9 293
741 -0.16072699228412937 -0.051135453147414016 0.6940679249170274 66 59 60 0.556897 2 975 4 1047 5 1065
742 0.016458915557071633 0.018745799421509633 0.594472432000938 18 19 14 0.275163 2 173 4 1052 5 1027 6 1594 7 2087 8 2157
743 0.14616591703594137 0.009373713609406602 0.6899230389408723 134 141 145 0.323329 3 298 4 1056 5 972 6 1550 7 1755 8 1843 9 1238
744 0.14979504828749024 0.016462513845847956 0.6946042412917843 93 89 90 0.493177 3 351 4 1059 5 993 6 1168
745 0.16241476106730957 0.015159761961734358 0.6719273113821415 66 32 48 0.251664 3 1166 4 1062 5 978
746 0.15885502538501836 0.018365751587896065 0.6803027568767452 45 54 61 0.539617 3 355 4 1066 5 982 1 943 6 1147 7 1345 8 1317
747 0.15204483550811518 0.021010579512035932 0.6844562102071298 83 83 85 1.36615 3 357 4 1073 5 994 6 1169 7 1349 8 556
748 -0.06110434085513295 0.014224892268228664 0.5734935516995506 104 94 91 0.492109 3 1152 4 1085 5 1046 6 1305
749 -0.06110434085513295 0.014224892268228664 0.5734935516995506 104 94 91 0.492109 3 1153 4 1086 5 1045 6 1306
750 0.0008511940582185647 0.01674575057666997 0.5959168879240049 11 18 22 0.41295 2 1008 4 1088 5 1026 6 1589 7 2090 9 443
751 0.1074329085650906 0.022185592144590052 0.6828344100515155 203 189 202 0.44108 3 348 4 1094 5 1009 7 1366 6 1172 8 1875
752 0.006023244121521291 0.052110932099966784 0.5747580931838014 12 13 5 0.474343 3 1179 4 1103 5 514 6 1263 7 1887 8 1926
753 -0.08989039404509191 0.07416390160108664 0.5702062578817525 76 152 191 0.232937 3 1212 4 1131 5 1408
754 -0.09656350625432564 0.07661287980754378 0.5688037819944094 134 173 210 0.289457 3 1213 4 1134 5 1111
755 -0.09656350625432564 0.07661287980754378 0.5688037819944094 134 173 210 0.289457 3 1214 4 1135 5 1110
756 -0.08489708297960508 0.07346729002869892 0.5713208706669898 106 118 98 0.303931 3 1215 4 1136 5 1100
757 0.30313955143219645 0.18752995999062277 0.6185878206856872 166 178 197 0.688023 3 618 4 1170 5 428 1 490 6 345 7 1255 8 114 2 699
758 0.31918534916832925 0.20852683173589176 0.6139211828369651 119 117 107 0.566055 3 1347 4 1191 5 431 1 1464 2 1824
759 -0.08592199556606114 0.25528573764878926 0.4980023099077122 113 61 84 0.241102 2 565 4 1267 1 368
760 -0.08302931408406644 0.2691494302627089 0.49260402000780446 136 40 64 0.3683 2 1245 4 1282 1 1027 9 1531
761 -0.06870915283680751 0.26865595065909886 0.4927488082942803 202 183 201 0.341237 2 1252 4 1283 1 1041 9 935
762 0.06304493226162099 0.3066024760116961 0.4671392730319341 108 120 86 0.421871 3 1489 4 1337 1 1112 7 1552
763 0.06324926365999077 0.3063283206763572 0.4667528853561908 108 120 86 0.145684 3 1490 4 1338 1 1111
764 0.05486953448827231 0.3113462200484822 0.463357642875103 90 179 231 0.259867 3 1485 4 1343 1 569 7 1578 8 1377
765 0.07165803616254669 0.3080495021410318 0.4676318959001213 10 28 62 0.294871 3 1495 4 1349 1 1131 7 1859
766 0.10701139473700702 0.3205749740243284 0.4656177109208031 153 180 200 0.344027 3 1528 4 1356 1 1177 6 1663 7 1818 8 1284
767 0.10682376967938445 0.32049358415914964 0.4654986246970153 153 180 200 0.345808 2 1362 4 1357 6 1664 7 1819 8 1285 9 611
768 0.10933914488111897 0.32097935314395326 0.4651842027967985 67 89 121 0.447139 3 1530 4 1359 1 1180 7 1433 8 1237
769 0.11605680733234527 0.31933185092565103 0.4661403195287929 66 88 118 0.374707 2 892 4 1364 1 647 6 1356 7 1426
770 0.10427326832530963 0.3244131487190732 0.463357642875103 153 184 201 0.35063 3 1533 4 1367 1 1175 6 1695 7 1820 8 1290
771 0.08322199388068433 0.3305293829033997 0.4575232746449217 125 101 56 0.132081 3 1568 4 1396 7 1521
772 0.09187030960749262 0.33189501916755665 0.45786939575578717 99 64 41 0.104645 3 1569 4 1397 1 1165
773 0.09681881341036 0.3410483804261846 0.45377077349247036 91 84 53 0.621068 3 1578 4 1398 1 1216 6 1700 7 794 8 1295
774 -0.03378853132447119 0.3257607935393485 0.47344655921557494 201 179 206 0.516423 3 1511 4 1408 1 1096 8 1523
775 -0.05526903021598648 0.007451010838549431 0.5766960287104783 125 116 111 0.545029 3 1980 4 1525 5 1567 6 2020
776 -0.005757973132518204 0.011104319163733492 0.5992375944232976 15 30 54 0.272195 2 1006 4 1530 5 1347 7 2102 8 2367 9 434
777 0.1561400308297402 0.013850584561948757 0.6762735301826861 118 127 130 0.349845 2 331 4 1532 5 1314
778 0.16755860054660593 0.01487695359862381 0.6653835662217708 72 46 64 0.514609 3 1677 4 1534 5 1315 6 1541 7 1304 8 480
779 0.00232016803561899 0.020813530364761086 0.593537733654517 46 52 49 0.154403 2 1011 4 1542 5 1349 8 2352 9 1271
780 -0.0981630312889436 0.07453975143112784 0.5685416209549916 0 47 111 0.232746 3 1205 4 1576 5 1407
781 -0.09381595575297597 0.08286927590706236 0.56617017730431 159 147 82 0.38264 3 1728 4 1582 5 1607 9 1445
782 0.2893281196790758 0.2347249442337937 0.5940115083433996 75 71 62 0.639793 3 2074 4 1628 1 1469
783 0.19761801959567182 0.22353597961027433 0.5819366792925662 155 182 197 0.706257 2 1615 4 1633 1 1459
784 0.23654807721379745 0.24644508481953223 0.5779340113966182 114 145 165 0.982499 2 1623 4 1634 8 159
785 0.27893677573430803 0.2418624070422577 0.5894296873015479 52 41 34 0.460869 3 1812 4 1637 5 520 1 1118
786 0.25270353708406584 0.2633022110011836 0.5721047835789745 60 51 44 0.600816 3 2086 4 1639 1 1484
787 0.4285356316099464 0.31613537106268386 0.5691413357510454 58 61 78 1.11254 3 1866 4 1654 5 1032 1 1678 6 1081 7 1196 8 1078
788 0.4285356316099464 0.31613537106268386 0.5691413357510454 58 61 78 1.11254 3 1867 4 1655 5 1033 1 1679 6 1082 7 1197 8 1079
789 0.07712812049089635 0.30787215790848443 0.4687053853850577 10 29 58 0.612858 3 1883 4 1721 1 1136 6 1691 7 1857 8 1822 9 607
790 0.09465384299660552 0.32306893084048954 0.4639316556084689 123 80 70 0.228632 2 1357 4 1725 1 1169
791 -0.036784535098471745 0.32215736435048764 0.4738149554474367 203 174 193 0.254533 2 1621 4 1740 1 1095
792 0.09482690355203821 0.33690006750833773 0.45622446374375364 98 67 51 0.304309 3 1930 4 1746 1 1215
793 0.10677322228943134 0.3400725587794627 0.454685766924164 167 146 103 0.144857 3 1933 4 1748 1 1503
794 0.11209526273669798 0.3421578527988843 0.45392926954571317 120 90 81 0.376805 3 1934 4 1749 1 1219 6 1698 7 1824 8 1243 9 623
795 0.08567868270594786 0.3486801795736816 0.44794925629363314 169 153 121 0.271933 3 1936 4 1760 1 1496 7 1864 8 1782
796 0.1594461728268429 -0.008515393225940072 0.6418147747368536 82 64 53 0.621092 3 1137 4 1793 5 1694
797 0.0018397879166256095 0.0014269099816052065 0.6043891445214004 27 34 40 0.309717 3 1654 4 1808 5 1345 6 1852 7 2230
798 0.16423875078273628 0.018534871160383257 0.6732629619064957 116 126 131 0.35815 3 2010 4 1812 6 1829 7 2022 9 1201
799 0.17023247180158327 0.020542459276944737 0.6747888076947414 113 126 131 0.651361 3 1698 4 1814 5 1538 1 1347 6 1830 9 1690
800 -0.07429592452976079 0.020413434922250864 0.5804408192441233 129 125 126 0.458715 3 1993 4 1822 5 1728 6 2143
801 -0.0459574299247426 0.03476760856580028 0.5789252542809529 71 61 54 0.222443 3 1684 4 1835 5 1379 6 1886
802 -0.05722084485651495 0.040089049298270875 0.577116685803139 68 58 51 0.588588 3 2003 4 1836 6 1903 9 1328
803 -0.017696469875499943 0.04567119461994031 0.5778509080605935 14 24 38 0.799933 3 1177 4 1844 5 1730
804 -0.11235485356984702 0.07564733898589704 0.5730566166338543 127 119 93 0.83662 3 2016 4 1857 5 1838
805 0.11104833204987252 0.2272936211752633 0.5762102597256747 152 183 197 0.630075 3 2267 4 1894
807 0.05615892129978814 0.3168687365847155 0.461017041699647 134 197 232 0.232416 2 1840 4 1936 9 1417
809 0.17013737416963756 0.3446004054896694 0.5233316926867589 150 147 142 0.525622 3 2135 4 1943 6 1882
810 -0.10011810152407924 0.09410467559050477 0.5584784066772076 151 136 95 0.402225 3 2214 4 2015 5 1746 9 1839
811 -0.10907441363543233 0.09383309046143465 0.557069076906481 112 60 50 0.312098 3 2213 4 2016 5 1843
812 0.2925451611921933 0.18369521223756974 0.6187565975640053 150 23 41 0.631954 3 2381 4 2024 5 1552 6 1529 7 1716 8 1703 9 316
813 0.2983152742656545 0.2227743418192859 0.6017092761184624 76 63 52 0.351553 3 2388 4 2035 5 1562
814 0.17713861604585507 0.3403587084107227 0.5254615369481732 141 137 130 0.317418 3 2298 4 2062 1 1798
815 0.09402157225448016 0.34021306338882384 0.4547491653454611 155 147 106 0.229249 3 2309 4 2073 1 1664 7 2241
816 -0.10229592296917772 0.3534127860499696 0.4842080128630502 167 163 164 1.54067 4 2084 1 1765 3 2301
817 0.09888697272132294 0.3187295659233283 0.46591071443544657 149 180 196 0.589976 3 2423 4 2157 1 1790 6 2159 7 2355 8 2433
818 0.08930096007411326 0.338013823558152 0.4546677754802824 155 145 104 0.505672 3 2426 4 2161 1 1904 7 2451 9 2086
819 0.08932837560764713 0.33765913509305734 0.4541563044327907 155 145 104 0.371674 3 2427 4 2162 1 1905 7 2450
820 -0.035119127109830145 0.32582333522522267 0.47293937184519796 185 162 184 0.130131 3 2417 4 2169 1 1771
821 -0.059396353115971516 0.29085139526105264 0.4844119158937086 174 187 209 0.385031 2 2063 4 2238 1 1881 9 2336
822 -0.059396353115971516 0.29085139526105264 0.4844119158937086 174 187 209 0.385031 2 2064 4 2239 1 1880 9 2335
823 0.07671303217848477 0.3251328064743378 0.4600772029406883 133 91 80 0.407155 2 2150 4 2245 1 1986 9 2298 10 1645
824 0.1674849213002336 -0.015556430462552848 0.613766970460837 51 52 66 0.764527 3 2453 4 2270
