# 3D point list with one line of data per point:
#   POINT3D_ID, X, Y, Z, R, G, B, ERROR, TRACK[] as (IMAGE_ID, POINT2D_IDX)
# Number of points: 639, mean track length: 4.05275
490 2.23117 0.366367 7.93617 72 72 68 0.951182 3 2526 2 2189 4 2279 6 2264 7 2485
491 0.586942 0.851952 7.26339 94 112 120 1.4734 3 2533 2 2223
492 0.439827 1.53049 7.07777 127 150 167 0.624385 3 2536 2 2193 4 2286 5 1954 1 2077 6 2333 7 2547 8 2664
493 -0.129199 2.16373 6.75094 86 79 73 0.512857 3 2539 2 2135 4 2291 5 2005
494 -0.129199 2.16373 6.75094 86 79 73 0.512857 3 2540 2 2136 4 2290 5 2004
495 -0.166162 2.26542 6.67478 146 143 138 1.32028 3 2541 2 2138 4 2294 5 2006 1 2043 9 2570
496 0.940609 3.75905 5.31307 134 91 82 0.407783 3 2548 2 2151 4 2246 1 1987 10 1646
497 0.982471 3.89776 5.2506 140 91 79 0.500637 3 2549 2 2207 4 2302 1 1988 8 2609 9 2300
1214 -0.000418841 0.57114 6.65449 97 102 98 0.0954217 4 222 7 1545 8 1583
105 1.2361 3.69941 5.37854 103 124 147 0.151672 3 900 2 875 4 801 6 1361 7 779 8 443
1220 1.99842 0.148541 7.62989 149 160 172 0.255717 6 1539 7 1741 8 1799
111 1.27255 3.70863 5.38134 165 185 209 0.171294 3 909 2 879 1 631
1221 1.97024 0.204988 7.77232 148 151 159 0.226473 6 1542 7 1742 8 1803 9 1693
112 1.32118 3.68375 5.3921 94 116 140 0.333741 3 910 2 882 4 809 7 706 8 438
1222 1.78347 -0.0773712 7.7805 115 76 90 0.34239 6 1128 7 1747 8 1833
113 1.32118 3.68375 5.3921 94 116 140 0.333741 3 911 2 883 4 810 7 705 8 439
1223 1.87312 0.195146 7.90493 154 159 165 0.22422 6 1554 7 1761 9 1243
114 1.31152 3.70081 5.38265 158 183 204 0.190268 3 912 2 880 6 792 7 708 8 440
1224 1.64908 3.86352 5.43599 174 174 169 0.980816 6 1324 7 1787 8 2049
115 1.3328 3.69588 5.38624 156 180 201 0.404263 3 913 2 886 4 812 1 632 7 707
1225 1.56935 2.72897 8.62681 193 208 226 0.1294 5 1610 7 1792
116 1.19611 3.75564 5.35177 168 183 203 0.173839 3 914 2 871 4 805 1 627 7 783
1226 1.35313 2.6233 6.57028 184 205 224 0.328088 5 1425 7 1795
117 1.24957 3.77571 5.339 99 94 99 0.220094 3 917 2 881 4 819 8 444
1227 1.51517 4.04552 5.21502 56 39 34 0.344729 1 1236 7 1805 8 1736
118 1.39557 3.64777 5.41622 160 181 197 0.447173 3 919 2 889 5 814 1 639 6 1347 7 1423 8 351
1228 1.08624 3.57301 5.42751 108 140 144 0.284888 3 1887 7 1816 8 1812
119 1.42643 3.63458 5.41668 157 181 201 0.397853 3 920 2 897 1 640 6 751 8 350
1229 1.35348 4.07135 5.17169 42 50 88 0.0740157 6 1702 7 1825 8 1755
120 1.41164 3.67654 5.39752 163 183 206 0.486786 3 921 2 890 6 787 7 692
1230 1.26927 4.0947 5.16117 164 188 202 0.135027 1 1232 6 1704 7 1827
121 1.39464 3.69697 5.38281 59 83 113 0.374184 3 922 2 891 4 1365 1 648 6 1355 7 1425
1231 1.19378 4.10655 5.15436 156 184 196 0.709825 4 1425 6 1722 7 1828 8 1778
122 1.45245 3.68504 5.38993 66 80 107 0.351971 3 923 2 902 4 817 1 652 7 693 8 348 6 1319
1232 0.156377 0.23512 6.85211 43 43 47 0.453018 6 1229 7 1841 8 2189 2 171
123 1.45195 3.68578 5.39178 66 80 107 0.278714 3 924 2 901 4 816 1 653 8 349 7 694
1233 0.295781 0.285691 6.8038 82 83 73 0.304536 6 1230 7 1842 8 2158
124 1.45399 3.65339 5.41675 96 114 139 0.465499 3 925 2 898 4 1362 5 1207 1 649 6 1316
1234 4.36271 -4.28496 12.3239 19 19 15 0.549709 6 1965 7 1985
125 1.49139 3.70388 5.39266 148 172 194 0.338493 3 928 2 906 4 826 5 816 1 656 6 1321 8 343
1235 2.10529 -0.3998 7.01399 214 238 250 0.151014 6 1518 7 2008 8 2065
126 1.49107 3.70391 5.39245 148 172 194 0.358851 3 929 2 905 4 827 5 815 1 657 6 1322
1236 1.83716 0.07565 7.80042 161 166 177 0.329081 6 1825 7 2027 8 2107
127 1.46258 3.70308 5.38306 154 179 197 0.199142 3 930 2 903 1 654 8 346
1237 1.58416 4.0756 5.21344 116 139 158 0.571924 6 2040 7 2057 8 2053 1 1672
128 1.4623 3.70461 5.3835 154 179 197 0.320176 3 931 2 904 1 655 6 1323 8 347
1238 1.4542 4.0677 5.18349 148 174 195 0.182573 6 1923 7 2058 8 2055
129 1.45238 3.79305 5.33207 134 121 102 0.46386 3 933 2 896 4 1372
1239 0.335215 0.0444557 6.96036 77 74 70 0.432469 6 1581 7 2067 8 2323 9 437
130 1.99218 3.8437 6.00195 176 128 140 0.0503337 3 939 2 943
1241 1.18329 4.02058 5.20623 149 115 88 0.406339 6 1938 7 2079 8 1776
132 0.937136 3.89278 5.22493 96 64 34 0.352682 3 962 2 859 4 860 1 607
1242 0.112718 0.188901 6.88149 44 41 38 0.445702 2 1009 6 1590 7 2089 8 2353 9 442
133 0.951056 3.96561 5.18493 126 117 82 0.208052 3 964 2 863
1243 0.326755 0.706467 6.57519 107 106 92 0.163252 6 1613 7 2094 8 2139
134 1.19498 3.88523 5.28135 113 77 51 0.254116 3 969 2 873 4 863 1 697 6 866 7 792
1244 0.326755 0.706467 6.57519 107 106 92 0.163252 6 1614 7 2095 8 2140
135 1.35174 3.81323 5.31524 94 66 41 0.147755 3 971 2 895
1245 0.233196 0.681439 6.59016 101 98 86 0.555239 6 1610 7 2097 8 2327
136 1.30472 3.89062 5.27641 183 145 114 0.282062 3 975 2 938 4 867 1 705 6 861 7 788 8 368
1246 1.04628 4.09219 5.1441 171 150 57 0.620111 1 1497 7 2101 8 2089
137 1.36944 3.88082 5.28288 179 146 125 0.166978 3 978 2 939 4 870 1 709 8 365
1247 2.44091 -0.740077 7.19128 209 229 244 0.524341 6 1970 7 2173 8 2409
138 6.08049 -2.38179 10.3322 27 54 67 0.39525 3 1030 2 1034
1248 1.89196 -0.26281 7.20317 117 43 54 0.666689 5 1528 7 2187 9 1664
139 6.19133 -2.40184 10.5581 23 56 66 1.56616 3 1032 2 1449 5 905 6 978
1249 1.77444 -0.240154 7.8097 125 115 113 0.546828 6 1533 7 2193 8 2281 9 1686
140 2.06098 -0.692024 7.08634 19 34 47 0.0288543 3 1080 2 994
1250 0.980668 0.209614 7.84575 149 117 100 1.10177 3 1694 7 2209 1 1541 8 2459
141 2.35913 -0.523423 6.9926 7 23 36 1.14635 3 1089 2 1029
1251 1.62374 4.05702 5.23528 50 39 60 1.07863 6 2039 7 2210 8 2414 4 2165
142 5.38371 -1.2775 9.22375 104 99 95 1.007 3 1094 2 1750 5 922 7 1639
1252 1.48193 4.05353 5.2131 49 37 33 0.441027 1 1670 7 2216 8 2054
143 -1.71453 -0.595879 7.97694 72 69 69 1.13243 3 1107 2 974 4 1046 5 1064 6 1706
1253 1.40973 4.08228 5.18713 125 148 168 0.487177 6 2049 7 2217 8 2071 9 1778
144 -1.58741 -0.508736 8.00169 136 129 119 0.729538 3 1108 2 101 5 1066
1254 0.758586 3.66379 5.33558 14 42 87 0.549995 1 1650 7 2253 8 2290 9 723
145 0.246393 -0.270909 7.12195 49 54 44 0.338726 3 1111 2 990 4 1026 5 1000 6 1572 7 2062 8 2345
1255 0.686626 3.69462 5.3058 15 81 124 0.705557 2 1638 3 1901 7 2261
146 0.246448 -0.272528 7.12436 49 54 44 0.239472 3 1112 2 991
1256 2.1057 -0.515257 7.00744 44 50 63 0.0637504 6 1973 7 2316 8 2419
147 2.06387 -0.114119 7.05554 110 116 126 0.202741 3 1136 2 264
1257 3.07341 3.05042 6.705 121 105 95 0.309184 6 2203 7 2326 8 2402
148 2.27249 -0.1047 7.01626 116 115 120 1.08549 3 1140 2 1088 4 47 5 281 1 914
1258 0.29684 -0.275886 7.13114 74 70 56 0.260717 2 1695 7 2349 8 2565
149 2.12633 -0.0979222 7.0654 103 113 114 0.429842 3 1141 2 1083 4 1496 5 967 6 1079 7 1293 8 1216
1259 1.16277 3.83265 5.30132 99 58 48 0.746246 1 1788 7 2359 8 2436
150 2.17278 -0.0851292 7.06955 108 120 122 0.858427 3 1142 2 1084 4 1013 5 282 1 911 6 291
1260 0.882002 4.00404 5.15942 138 158 162 0.787957 2 2093 7 2371 8 2444
151 2.26424 -0.0723677 7.06263 111 115 116 0.381522 3 1143 2 1085 4 1012 5 283 6 292
1261 2.37289 -0.536268 7.11126 55 67 76 0.190293 6 2083 7 2415 8 2517
152 0.0335278 0.121438 6.91759 11 26 46 0.201057 3 1157 2 1005 4 1529 5 1346 6 1855 7 2103 8 2366
1262 3.68226 2.58567 6.98777 153 151 143 0.965461 6 2265 7 2416 8 2585 9 2407
153 0.267755 0.0693549 6.95478 11 15 10 0.377393 3 1160 2 1015 5 1005
1263 2.06821 -2.28133 9.41087 39 42 49 1.20492 6 2180 7 2424 8 2653
154 0.28016 0.241905 6.83868 44 51 43 0.493661 3 1161 2 1014 4 193 5 467 6 1595 7 2092
1264 0.791277 0.593008 7.82348 140 157 173 0.60483 6 2272 7 2437
155 1.86498 0.0717508 7.70895 66 47 62 0.142786 3 1164 2 327
1265 2.46585 -0.799077 7.12325 81 89 97 1.57112 6 2256 7 2477 8 2678
156 0.048365 0.529346 6.67925 23 23 21 0.232004 3 1178 2 1073 4 1099 5 1048 6 1606 7 2107 8 2193
1266 0.202938 -0.324408 7.16484 44 43 45 0.474848 6 2269 7 2538 8 2665 9 2419
157 1.14287 0.372537 7.71587 140 26 45 0.534639 3 1184 2 1116
1267 7.70525 2.81454 7.38437 146 147 138 0.806383 6 2398 7 2592 9 2611
158 1.86646 0.191505 7.88572 122 134 132 0.364277 3 1186 2 332 4 1533 5 1325 6 1553 7 1760 8 1841
1268 1.93956 3.27793 5.95911 0 0 0 0.870589 1 2095 3 2698
159 1.89635 0.183718 7.84268 44 50 57 0.539911 3 1187 2 333 4 1063 5 977 1 908 6 1552 7 1759 8 1807
1269 1.42833 3.97111 5.24925 187 171 64 0.652219 6 2427 7 2619 8 2716
160 1.95527 0.189657 7.79982 115 127 131 0.528716 3 1189 2 336 4 1065 1 180 6 1146 7 1342 8 490
498 -0.155047 4.21666 5.67843 163 157 161 0.407177 3 2552 2 2148 4 2306 1 1980
1270 3.00384 2.12844 7.0493 25 33 32 1.20732 1 2220 7 2659 8 2768
161 1.91805 0.261028 7.97849 68 67 69 0.586976 3 1190 2 403 4 1535 1 178
499 1.9103 -0.188605 7.40839 88 27 25 2.00874 3 2560 2 2175 4 2357
1271 1.88938 -1.26617 8.80433 155 146 137 0.92762 6 2490 7 2685 8 2805
500 0.83411 0.353349 7.73986 54 51 44 1.72018 3 2563 2 2181 4 2316 5 1988 1 2107 6 2327 7 2537 8 2696
1272 1.50643 2.16316 6.95218 184 207 242 1.16636 5 2150 7 2691
163 2.0533 0.262393 7.81331 41 46 53 0.411474 3 1194 2 406 4 1076 5 984 1 947 6 1153 7 1309 8 484 9 310
1274 1.92932 -0.0173392 7.44804 92 88 81 1.36227 6 2195 7 2429 9 2401
165 2.12658 0.218418 7.68453 132 123 131 0.244824 3 1197 2 343 5 348
503 -0.982893 1.13719 6.4544 100 66 51 0.133181 3 2571 2 2179
1275 4.71253 -4.20543 11.8432 21 33 39 1.34882 6 2251 7 2522 9 2499
166 2.1621 0.219424 7.68042 53 38 50 0.403462 3 1198 2 1159 4 1079 2 1158 5 986 6 1141
1276 1.96764 -2.12399 9.47718 165 158 148 1.65881 6 2356 7 2569
167 2.1181 0.290563 7.82694 82 90 96 0.398395 3 1199 2 407 4 1078 5 350 6 386 6 388
505 -0.31412 2.11883 6.84447 134 130 131 0.857267 3 2578 2 2195 4 2331
1277 4.57075 1.79782 7.93081 171 162 153 1.42884 6 2467 7 2631
168 -1.08215 0.813794 6.64782 117 196 237 0.358866 3 1203 2 218 4 1129
506 0.207971 2.09876 6.698 117 139 153 1.56229 3 2579 2 2229 4 2332 5 2001 1 2082 6 2286
1278 3.39269 2.34464 7.06457 175 198 217 0.9182 6 2436 7 2634 9 2761
169 -1.01725 0.743498 6.72082 32 55 86 0.690948 3 1207 2 1050 4 1570 5 1599
507 1.00716 3.69643 5.36374 141 145 147 0.908145 3 2584 2 2205 4 2345 7 2540 8 2649 9 2433
1279 0.104267 -0.133836 7.05353 113 136 150 0.302674 5 1549 6 2001 3 1983 2 1694 4 1807 7 2360 8 2569 9 1720
170 -0.827003 0.82739 6.64313 172 175 163 0.617281 3 1217 2 1059
508 0.0223634 4.08106 5.75853 157 151 155 0.22128 3 2589 2 2204 1 1981
1280 2.26707 0.535295 7.89193 133 129 123 0.749301 2 2264 1 2143 7 2572 3 2568 2 2225 4 2317 5 1985 6 2320 8 2720 9 2528
171 -0.979842 0.603199 7.26347 121 107 95 0.33515 3 1220 2 225
509 0.734049 3.86009 5.24004 173 177 175 0.640529 3 2590 2 2206 4 2348 1 2060
1318 0.432341 1.84948 6.89175 186 206 242 0.787674 5 2128 8 2800
209 2.62681 3.11522 6.45932 105 130 153 0.817323 3 1395 2 786 4 1220 5 592 1 596 6 501 7 504 8 164
1320 1.175 0.802906 7.59704 181 201 235 0.243256 7 2696 8 2813
211 -0.503888 3.16556 5.73554 148 158 176 0.132036 3 1406 2 638
1321 0.723627 2.86573 6.4848 68 66 62 1.54055 7 2586 8 2656 2 2202 1 2048
212 -0.531252 3.2806 5.67359 104 70 93 0.569316 3 1423 2 635 4 1288 1 426
1322 0.807445 2.21147 6.76248 12 21 21 1.9955 1 2234 7 2692 3 2736 2 2347 4 2477 5 2153 6 2509 8 2807
213 -0.355671 3.38664 5.64436 77 74 89 0.123519 3 1434 2 1286
1323 1.08358 3.57084 5.42534 44 74 85 0.464735 3 1888 7 1817 3 2121 4 1939 8 1813
214 -0.409523 3.4604 5.56959 98 70 83 0.524947 3 1436 2 1282 8 2201
1324 2.06387 -2.2315 9.44166 57 54 63 1.35224 7 1282 8 1382 9 1998
215 -0.186162 3.41574 5.64835 81 78 92 0.965853 3 1451 2 1293 4 1326
1325 1.80858 -2.15726 9.4018 31 57 75 1.48327 7 2427 8 2613 9 2388
216 -0.157829 3.44574 5.66227 88 78 94 0.463268 3 1452 2 681 4 1330
1326 2.07086 -0.0303081 7.3132 112 53 56 1.82927 7 2566 8 2643
217 0.00169958 3.3996 5.73708 102 68 76 0.504748 3 1454 2 1302 8 2144
1327 2.10984 0.124454 7.51604 135 146 152 1.18004 7 2571 8 2644
218 1.99585 3.58895 6.10848 145 25 54 0.0222518 3 1457 2 842
1328 2.4512 1.78581 7.17229 8 13 14 2.51173 2 2341 7 2678 6 2491 3 2724 4 2467 5 2140 1 2224 9 2847 10 2649
219 2.48248 3.49191 6.23137 88 79 75 0.41475 3 1460 2 1389
1329 1.33724 4.10076 5.17448 152 181 200 0.455774 4 1766 1 1509 8 1756 6 1925 7 2078
220 0.526019 3.58389 5.44892 50 69 95 0.186882 3 1482 2 739 4 769
1330 1.8304 2.37947 6.78304 16 25 29 1.94426 3 2694 2 2316 4 2442 5 2111 6 2448 7 2641 7 2667 8 2772 6 2473 9 2771 10 2557
221 0.64211 3.53879 5.39083 46 37 56 0.0180268 3 1483 2 743
1219 1.83237 -0.333673 7.92828 126 116 116 0.460588 6 371 7 1738 8 2100
110 1.27064 3.70998 5.37907 165 185 209 0.446925 3 908 2 878 4 811 1 630 6 1362 7 778 8 441
264 0.914928 3.97351 5.18335 116 83 67 0.567551 3 1584 2 860 4 904 1 688 7 1009 8 1341
1346 1.64455 2.08926 6.98136 207 229 251 0.0453933 9 2891 10 2664
237 0.729713 3.61875 5.35184 0 60 117 0.232009 3 1518 2 1323
1287 1.78554 0.112406 8.00526 107 98 101 0.334944 7 1341 8 563 6 1167
178 -0.904797 1.3882 6.26856 123 77 72 0.394651 3 1268 2 1127 4 1180
516 1.17485 0.269021 7.8178 177 19 19 0.710848 3 2605 2 2256 4 2363 5 2027 6 2415 7 2615 8 2753
1333 -0.845787 2.51079 6.03711 161 36 48 0.801858 3 2266 9 1484
224 0.75541 3.54555 5.39429 103 107 93 0.173963 3 1488 2 1325 4 1340 1 532
1316 3.06673 2.17681 7.14317 20 28 27 1.43847 6 2469 7 2658 8 2767 9 2816
207 -0.635731 2.99084 5.79308 63 60 86 0.315382 3 1392 2 602 4 634 1 375
1218 1.85028 -0.433541 7.20339 182 173 185 0.131443 6 1099 7 1730 8 1793
109 1.27425 3.69005 5.38649 104 119 143 0.296865 3 906 2 1361 1 620 6 1359 7 1463 8 1286
263 1.14732 3.82893 5.31219 82 47 34 0.492388 3 1574 2 1358 1 617
1345 1.64581 1.34912 7.3154 25 33 34 1.40634 1 2233 10 2672 8 2812
236 0.67084 3.79656 5.27206 169 149 123 0.292894 3 1517 2 801 8 1378 1 567
1286 1.35052 3.98202 5.23212 169 159 151 0.544166 3 977 8 374 4 873
177 -0.90779 1.32372 6.34188 166 134 112 0.118593 3 1267 2 368
515 0.243822 -0.256149 7.12154 40 42 35 0.810444 3 2604 2 2247 4 2397 5 2068 6 2445 7 2645
1315 0.482693 2.21344 6.63766 0 0 0 1.092 1 2151 6 2455
206 -0.742467 2.98282 5.78141 68 76 100 0.243901 3 1388 2 1248 4 632
1217 5.26147 3.93784 6.49006 170 171 169 0.526239 6 1522 7 1668 8 1673
108 1.32492 3.66124 5.40328 157 182 201 0.282137 3 905 2 885 1 624 8 436
262 1.07074 3.94001 5.23671 110 79 59 0.282634 3 1570 2 867 4 864 1 696 8 1296
1344 2.55344 2.00669 7.06895 200 215 237 0.529444 9 2415 10 2435
235 -0.312622 3.81116 5.47384 118 40 69 0.520245 3 1516 2 714 4 1411 1 497 8 1949
1285 2.33667 2.59616 6.72227 15 26 46 0.491311 6 492 8 259 10 774
176 -0.747289 1.30268 6.34316 84 105 138 0.335077 3 1265 2 1132 4 1161
514 -1.25568 -1.21213 8.89595 9 23 27 1.32907 3 2599 2 2166 4 2396
1314 0.482693 2.21344 6.63766 0 0 0 1.092 1 2150 6 2454
205 -0.742762 2.98341 5.78399 68 76 100 0.260082 3 1387 2 1249 4 631 1 1032
1216 0.689087 3.60047 5.36063 71 133 176 0.177572 1 568 7 1577 8 1376
107 1.32453 3.66176 5.40396 157 182 201 0.272577 3 904 2 884 4 808 1 623 8 435
261 0.852595 3.91319 5.20103 157 148 116 0.659631 3 1567 2 1355 4 1416 1 603 7 1899
1343 2.80449 2.14561 7.03561 0 0 0 0.388334 5 1560 7 1734
234 -0.369511 3.78409 5.48556 203 148 173 0.364171 3 1515 2 712 4 1410 8 1528
1284 2.54015 1.94746 7.13423 33 43 66 0.230808 7 496 8 256
175 -0.829289 1.24386 6.37946 87 105 134 0.673899 3 1263 2 1103 4 349 5 1138
513 -1.93479 -1.41937 8.66121 15 47 77 0.710087 3 2596 2 2238 4 2353 5 2033
1313 1.29113 -2.73605 10.0952 24 29 33 0.665106 7 2606 8 2726
204 -0.771837 2.97291 5.7753 91 100 129 0.281871 3 1386 2 1237 4 1268 1 1030 9 931
1215 -0.0146375 0.667285 6.60403 88 93 98 0.196329 6 696 7 1569 8 1585
106 1.32082 3.64457 5.40987 102 122 146 0.687225 3 901 2 826 4 807 1 622 6 1351 7 702 3 902
260 0.867925 3.86881 5.24177 92 57 47 0.45859 3 1566 2 1352 4 1394 1 606 7 1560 8 519
1342 2.03446 0.205151 7.70797 69 43 58 0.319285 3 1191 2 338 4 1072 5 979 9 304 6 1150 7 1305 8 1310
233 -0.369511 3.78409 5.48556 203 148 173 0.364171 3 1514 2 711 4 1409 8 1529
1283 2.83888 2.13636 7.079 25 34 49 0.586894 7 466 8 193
174 -1.28354 1.36809 6.25329 152 177 207 0.360136 3 1261 2 284 4 1175
512 -1.93479 -1.41937 8.66121 15 47 77 0.710087 3 2595 2 2237 4 2354 5 2032
1213 0.117136 0.600565 6.63273 95 92 84 0.221686 6 657 7 1542 8 1575
104 0.982157 3.74511 5.33253 95 83 50 0.163522 3 895 2 818 4 800 8 516
258 0.841121 3.86698 5.23051 152 117 113 0.0688681 3 1563 2 856
1340 13.3303 -10.0534 56.3368 29 27 34 0.394606 7 2331 9 2466
231 -0.284104 3.77048 5.48164 199 165 181 0.241722 3 1512 2 1308 4 1412 1 499
1281 2.78187 1.34914 7.4617 103 95 101 0.581919 2 1566 1 1613 7 1733 5 1010 6 1155 3 1282 8 1715
172 -1.39491 1.21251 6.37508 34 35 68 0.139656 3 1259 2 1098
510 1.04063 3.82555 5.29806 148 128 81 0.471659 3 2591 2 2208 4 2300 1 2061 7 2541 8 2606
1212 0.133483 0.588312 6.63775 46 39 32 0.223 6 656 7 1541 8 1511
103 0.941674 3.72998 5.33199 83 53 63 0.359763 3 894 2 1338 4 799 1 608
1339 1.32245 2.24531 6.8517 205 231 249 0.791354 7 675 9 1311
230 -0.353163 3.73942 5.50173 198 167 188 0.456426 3 1510 2 709 4 890 1 495 8 1526
1211 0.0549376 0.45818 6.72713 56 46 50 0.104249 6 636 7 1539 8 927
102 0.815967 3.74907 5.31811 132 118 96 0.112911 3 885 2 811
1338 1.86362 0.0557513 7.81525 98 59 70 3.05009 6 1136 9 298 7 1331 9 294
229 2.2702 3.63047 6.11025 188 181 196 0.245871 3 1503 2 1387 4 1685 1 1204
1337 0.808614 2.23018 6.76238 24 35 35 0.870532 1 2235 9 2872 10 2644
228 1.15312 3.49181 5.47911 36 33 50 0.116571 3 1498 2 772 4 708
1336 2.30816 2.28882 6.83797 0 0 0 0.505586 7 2679 8 2791
227 1.02391 3.55323 5.43167 4 32 70 0.494423 3 1497 2 1341 4 1302 1 1138 6 1690 8 1331
1335 -1.87746 -1.02995 8.9546 24 22 29 1.02324 5 1586 9 1864 6 2152
226 0.971294 3.54048 5.43232 97 107 87 0.390672 3 1496 2 1327 4 1301 1 1135 6 1688 7 1856
1334 6.98997 -1.38413 8.63725 192 221 226 0.542665 6 1736 7 1585 9 1594
225 0.862652 3.54465 5.41114 100 108 99 0.454474 3 1492 2 752 4 773 6 1418 8 1364
1312 1.93956 3.27793 5.95911 0 0 0 0.870589 1 2096 3 2699
203 -0.858399 2.92849 5.78733 80 84 107 0.675086 3 1383 2 1234 4 622 1 1029 9 936
541 2.01989 1.70954 7.18522 154 187 202 1.02865 3 2685 2 2310 4 2435 5 2101 1 2201 6 2470 7 2663 8 2770 6 2443 9 2765 10 2608
1310 2.09754 -2.29289 9.48629 28 44 52 0.679298 7 2423 8 2652
201 2.83514 2.90194 6.59197 109 132 158 0.552724 3 1379 2 792 4 532 5 548 1 1115 6 460 7 501
539 3.99954 0.227814 7.80102 121 119 109 1.30815 3 2679 2 2305 4 2431
1309 -0.462242 3.35619 5.65144 86 78 96 0.944827 1 1757 8 2568 9 2168
200 2.83514 2.90194 6.59197 109 132 158 0.552724 3 1378 2 793 4 533 5 549 1 1116 6 461 7 500
538 -0.246674 4.10274 5.79349 103 93 90 0.159843 3 2672 2 2270
1308 0.124978 0.109121 6.92635 43 42 51 0.825769 7 2362 8 2476 9 1723
199 -0.342732 2.78651 6.40466 140 133 136 0.992819 3 1377 2 1572 4 1249 1 1026
537 0.24228 3.60561 6.03393 151 141 139 0.850065 3 2666 2 2293 4 2427 1 2129
1307 0.715664 3.77217 5.26354 134 116 61 1.06185 7 2375 8 2452 2 1838 9 1820
198 3.59247 2.54851 6.93525 68 58 52 0.292517 3 1362 2 1625 4 460 1 561
1306 1.89155 -0.557977 7.09186 124 63 67 0.522395 7 2321 8 2429 9 1980
197 -0.788984 2.52683 6.06523 198 140 151 0.298598 3 1358 2 1214 1 1402
535 -1.0763 2.98049 5.80954 154 24 30 1.37878 3 2660 2 2290
1305 1.85216 -0.550646 7.17774 164 166 175 0.289121 7 2186 8 2276 9 1981
196 -0.787509 2.52703 6.06339 198 140 151 0.332672 3 1357 2 1213 4 1232 1 1401
534 3.77658 2.33477 7.11997 97 87 73 2.04255 3 2659 2 2294 4 2415 5 2029 1 2160 6 2318 7 2526 9 2531 8 2638
1304 1.06219 1.97814 6.90188 168 190 204 0.984212 7 1793 8 2116 6 2009
195 -1.2257 2.47989 5.98129 213 175 186 0.20825 3 1354 2 480 4 1245
533 -0.649602 2.15516 6.67933 81 79 75 0.74146 3 2658 2 2265 4 2416 1 2147
1303 0.698516 3.62784 5.35082 0 66 122 1.04689 2 1631 8 2112 1 1472
194 3.44106 2.29833 7.01769 106 132 150 0.634818 3 1345 2 695 4 454 5 478 1 1087 8 133 10 922
532 3.25753 1.9221 7.1884 142 173 189 1.7639 3 2657 2 2291 4 2413 5 2028 6 2367 6 2412 7 2604 8 2707 1 2187 9 2627
1302 0.856201 3.88206 5.21722 100 77 58 0.639949 4 1954 7 2112 8 2094 9 1423
193 3.44012 2.29773 7.0147 106 132 150 0.692792 3 1344 2 696 4 455 5 479 1 1088 8 134
531 -1.09804 1.58187 6.07112 7 41 97 1.43839 3 2656 2 2259 4 2374
1301 0.171066 0.350923 7.04004 0 0 0 0.132453 6 1257 7 1494
192 -0.936922 2.3672 6.12706 190 143 150 0.461 3 1342 2 1198 4 1228 1 1005
530 0.629187 1.23148 7.2273 96 118 130 1.0879 3 2655 2 2263 4 2408 5 2073 1 2145 6 2420 8 2755
1300 -0.28661 3.33864 5.67766 95 102 110 1.00679 1 1052 8 1941 3 1426
191 3.70966 2.12642 7.14443 171 171 184 0.116706 3 1336 2 1304
529 -1.48105 1.21127 6.34845 5 42 102 1.66115 3 2651 2 2252
1299 -0.272882 3.27146 5.72557 60 52 72 0.0796497 1 1050 8 1934
190 3.51127 2.17735 7.05069 158 173 189 0.273464 3 1334 2 1616 4 1168 1 1460
528 2.82117 0.849427 7.78288 133 130 127 1.35753 3 2650 2 2307 4 2404 1 2197
1298 0.366872 -0.201056 7.08024 44 33 53 0.479651 3 228 8 1915 6 1201
189 3.36183 2.05955 7.14069 98 38 62 0.0306349 3 1330 2 1601
527 -0.963167 0.832708 6.67551 84 153 192 1.65925 3 2648 4 2407 5 2079 2 2280
1297 1.75699 0.000475982 7.97525 159 170 181 0.251265 6 1549 8 1838 9 1708
188 3.36198 2.05952 7.14318 98 38 62 0.0556552 3 1329 2 1600 10 1455
526 3.26636 -0.00762554 8.20911 131 130 125 0.605359 3 2647 2 2303
1295 2.37116 2.5926 6.74066 179 201 213 0.290162 5 1396 8 1730 10 1759
186 -0.874794 1.88071 6.21636 39 51 66 0.043182 3 1315 2 1171
524 1.98982 -0.0726123 7.32378 82 33 32 0.772946 3 2644 2 2250
1294 5.19091 3.9772 6.46837 152 162 163 0.52312 6 1083 7 1198 8 1674
185 -0.874794 1.88071 6.21636 39 51 66 0.043182 3 1314 2 1170
523 -2.60745 -0.722843 8.64385 14 17 20 0.866443 3 2643 2 2242 4 2403
1293 0.312076 0.622379 6.61831 38 35 25 0.242985 6 653 7 1507 8 1447
184 -0.820939 1.67718 6.35645 10 27 61 0.276166 3 1297 2 1175
522 -3.00938 -1.32631 9.75896 116 125 118 1.1434 3 2642 2 2236
1292 0.816721 3.61599 5.37565 4 58 103 1.12931 7 1555 8 1371 4 1341
183 -1.12915 1.4767 6.20725 164 194 213 0.362564 3 1287 2 1126 4 1177
521 1.17359 2.20777 6.8118 20 30 33 1.09361 3 2624 2 2267 5 2043 1 2155 6 2422 7 2617 8 2723
1291 1.85131 -0.128937 7.4845 160 160 173 0.469109 6 1124 7 2021 8 1308 9 285
182 -0.617968 1.41175 6.27423 78 99 134 0.731145 3 1275 2 1135 5 1149
520 1.17359 2.20777 6.8118 20 30 33 1.09361 3 2623 2 2268 5 2044 1 2154 6 2421 7 2618 8 2724
1290 1.55561 3.72369 5.43487 137 168 184 0.0840145 6 752 7 1383 8 1221
181 -0.687903 1.35697 6.33805 84 105 134 0.423835 3 1271 2 378 4 365 5 689
519 3.51161 2.06244 7.14057 161 31 40 1.28543 3 2622 2 2292 4 2371 1 2159 6 2362 7 2562 8 2675 9 2530
1289 1.0434 1.95794 6.92053 23 27 44 0.134344 2 531 8 614
180 -0.71288 1.35599 6.3289 173 198 215 0.293806 3 1270 2 377 5 1144
518 4.38247 1.01147 7.15965 147 34 0 1.49956 3 2612 2 2288 4 2314 5 1940 6 2179 7 2294
1288 0.764126 3.69826 5.31295 122 120 91 0.370841 2 805 7 1006 8 594
179 -0.711977 1.35579 6.32772 173 198 215 0.297499 3 1269 2 376 4 364 5 1143
517 1.97681 0.205252 7.94189 103 115 121 0.569877 3 2606 2 2262 4 2401 5 2065
1282 4.23396 1.53359 7.61418 139 131 119 0.655883 3 2575 2 2231 4 2283 1 2087 7 2475 5 1983 6 2313 8 2581 9 2527
173 -1.34988 1.35831 6.31844 21 42 102 0.0120499 3 1260 2 283
511 0.948007 4.00728 5.12576 138 146 148 0.0326015 3 2592 2 2211
1210 0.100771 0.464146 6.71751 40 34 36 0.329257 6 631 7 1537 8 923
101 0.766091 3.71661 5.30541 109 84 44 0.162953 3 884 2 806
1209 1.05757 4.04962 5.1683 120 89 55 0.374371 1 1212 7 1525 8 1298
100 0.869157 3.68597 5.31443 168 161 99 0.203714 3 882 2 808
1207 0.324847 0.641462 6.6088 99 97 87 0.129926 6 589 7 1508 8 1446
98 0.791962 3.63486 5.35607 116 155 202 0.142179 3 875 2 803 4 783 7 1001 8 591
1206 0.232034 0.546258 6.65968 103 103 95 0.405206 6 646 7 1506 8 1494
97 0.665706 3.76429 5.2845 168 148 111 0.166954 3 873 2 800 8 1379
1205 0.232034 0.546258 6.65968 103 103 95 0.405206 6 645 7 1505 8 1495
96 -0.337334 3.82047 5.47332 221 144 172 0.636432 3 863 2 713 8 1524
1204 0.17926 0.534094 6.66174 102 104 99 0.30789 6 648 7 1504 8 1498
95 2.3682 3.70445 6.21096 84 79 82 0.409639 3 855 2 1388 4 650
1203 0.269427 0.553372 6.65779 99 99 91 0.400115 6 647 7 1497 8 1491
94 1.53937 3.61762 5.48437 139 165 187 0.285466 3 854 2 907 4 722 5 802 1 660
1202 0.252593 0.0948852 6.92648 79 80 71 0.314306 6 578 7 1491 8 1923
93 1.45972 3.6184 5.43417 92 112 136 0.278452 3 852 2 900 4 719 1 641
1201 0.206422 -0.093008 7.0275 89 87 75 0.142531 6 526 7 1486 8 1957
92 1.37553 3.63382 5.42041 103 117 143 0.396028 3 848 2 827 4 714 5 1205 6 1348 7 689 8 352
1200 0.13037 -0.106598 7.0327 51 49 54 0.237328 6 576 7 1485 8 1549
91 1.16136 3.52747 5.46986 21 36 61 0.325042 3 847 2 823 4 712
1199 0.164228 -0.338459 7.16087 91 89 80 0.165942 6 516 7 1483 8 1954
90 1.16878 3.51088 5.47203 96 104 96 0.617946 3 846 2 822 4 711 1 586 6 1656 8 1281
1198 1.24186 4.12035 5.13357 165 190 204 0.178083 6 1423 7 1475 8 1248
89 1.17004 3.50861 5.46845 96 104 96 0.468059 3 845 2 821 1 587 7 1460 8 1280
1197 0.29352 0.0986265 6.91513 80 80 76 0.33719 6 541 7 1458 8 1922
88 1.01288 3.53578 5.44029 94 108 112 0.471787 3 841 2 764 4 698 1 578 6 848 7 883
1196 0.402603 0.145922 6.8793 77 76 68 0.552028 6 543 7 1456 8 1432
87 1.0126 3.53562 5.43957 94 108 112 0.447554 3 840 2 763 4 699 1 577 6 849 7 882 8 510
1195 0.265045 -0.0381772 6.99256 52 42 39 0.190137 6 539 7 1453 8 1921
86 0.932812 3.54078 5.42425 103 111 104 0.257518 3 839 2 758 4 788 1 573 6 1387
1194 0.265045 -0.0381772 6.99256 52 42 39 0.190137 6 538 7 1452 8 1920
85 0.931849 3.5417 5.42489 103 111 104 0.390485 3 838 2 757 4 787 1 572 6 1388 7 888
1193 0.27764 -0.0174026 6.98493 89 86 72 0.258318 6 540 7 1451 8 1478
84 1.03716 3.53392 5.44315 98 108 93 0.40942 3 832 2 765 4 700 1 580 6 1391 7 1512 8 508
1192 0.34286 -0.0291136 6.98574 36 33 28 0.0903236 6 1204 7 1447 8 1917
83 0.976725 3.47113 5.45072 105 101 90 0.0877163 3 829 2 760
1191 0.4035 -0.150755 7.04948 105 120 144 0.307784 6 521 7 1440 8 1912
82 0.823666 3.76854 6.44231 189 189 167 1.85509 3 828 2 768
1190 0.483915 0.0123285 6.95773 93 90 87 0.384183 6 536 7 1405 8 1424
81 0.844853 3.59053 5.38511 90 135 150 0.171717 3 826 2 754 4 777
1189 0.501674 -0.00460585 6.97282 48 41 43 0.219004 6 535 7 1404 8 1894
80 0.687488 3.5603 5.3579 19 53 93 0.0811154 3 822 2 749
1188 0.488976 -0.138832 7.04342 101 109 126 0.223493 6 479 7 1399 8 1892
79 -0.427543 3.6611 5.53108 225 129 152 0.431354 3 811 2 706 4 842 8 1618
1187 0.499811 -0.215714 7.08821 108 118 141 0.256747 6 476 7 1397 8 1885
78 -0.427543 3.6611 5.53108 225 129 152 0.431354 3 810 2 705 4 843 8 1617
1186 1.53642 1.93749 6.97234 48 61 93 0.427403 5 1077 7 1370 8 1323
77 -0.474893 3.1442 5.74982 149 163 183 0.282579 3 750 2 605 8 1602
1185 1.85732 0.154977 7.86597 77 67 77 0.441281 4 1058 7 1334 8 1839 9 302
76 -0.553753 3.11848 5.73806 79 72 96 0.16033 3 744 2 604 4 670
1184 1.84967 0.10537 7.80261 165 172 185 0.328292 6 1140 7 1333 9 301
75 -0.783021 3.17175 5.70205 112 88 110 0.164729 3 739 2 600 4 668 1 396
1183 1.77651 -0.112059 7.84687 116 82 98 0.157941 6 374 7 1321 8 1348 9 287
74 -0.783021 3.17175 5.70205 112 88 110 0.164729 3 738 2 599 4 667 1 395
1182 1.7887 -0.107314 7.80035 199 182 193 0.192878 6 375 7 1320 8 1346
73 2.58989 3.14596 6.42344 102 128 149 0.0466713 3 728 2 784
1180 2.00351 -0.162084 7.10004 150 153 161 0.101571 6 1108 7 1295 8 1270
71 -0.669331 2.98188 5.80969 147 160 182 0.1604 3 714 2 601
1179 1.8752 -0.387582 7.14669 176 170 184 0.450679 6 1101 7 1285 8 1791 9 226
70 3.50751 2.63771 6.94104 59 52 47 0.169141 3 675 2 1318
1178 1.97431 -2.82918 9.85752 36 34 44 0.172719 6 226 7 1280 8 2126
69 -0.858135 2.44976 6.09445 202 136 151 0.344473 3 657 2 492 4 552 1 1016
1177 2.064 -0.352468 6.94593 92 103 117 0.132494 6 282 7 1273 8 1745
68 -0.858135 2.44976 6.09445 202 136 151 0.344473 3 656 2 493 4 553 1 1015
1176 2.09291 -0.350642 6.93548 215 236 250 0.188615 5 268 7 1272 8 1744
67 3.8276 2.37197 7.08058 68 60 52 0.576267 3 646 2 1626 4 461 1 516
1175 2.47058 -0.371986 7.00275 73 88 101 0.238133 6 246 7 1252 8 1727
66 3.40072 2.33643 6.99164 96 121 143 0.553754 3 644 2 698 5 480 6 392 8 136
1174 2.52772 -0.472819 7.06024 95 104 119 0.312581 6 206 7 1247 8 1722
65 3.40072 2.33643 6.99164 96 121 143 0.553754 3 643 2 697 5 481 6 393 8 135
1173 6.27569 -2.54707 10.6179 15 21 31 0.471484 6 65 7 1131 8 1112 9 110
64 3.74871 2.15103 7.14445 164 178 185 0.583433 3 619 2 701 5 427 1 1092 8 108
1172 0.0893921 0.67186 6.59818 38 34 35 0.141608 6 660 7 980 8 1579
63 3.45985 1.9258 7.20023 168 161 172 0.415766 3 597 2 666 4 334 1 458
1171 0.00481596 0.592624 6.65843 42 43 45 0.247048 6 688 7 970 8 940
62 -0.941328 1.80171 6.08382 15 32 66 0.301397 3 572 2 421
1170 0.0331495 0.573612 6.64756 43 37 42 0.270687 6 641 7 968 8 1581
61 -0.140887 1.65208 6.34423 96 111 124 1.1559 3 555 2 1181 5 638 6 1678
1169 0.0763464 0.509803 6.68248 123 125 118 0.282761 6 639 7 961 8 1568
60 -0.140887 1.65208 6.34423 96 111 124 1.1559 3 554 2 1182 5 639 6 1679
1168 0.063425 0.420256 6.75433 38 34 37 0.232883 6 632 7 948 8 1569
59 -1.10007 1.4879 6.19844 37 57 86 0.494364 3 534 2 363 4 428 5 1175 9 803
1167 0.0720576 0.355375 6.77815 44 43 47 0.232627 6 630 7 943 8 913
58 -1.19102 1.47118 6.20189 16 44 98 0.409513 3 526 2 362 4 427 5 1196
1166 0.291548 0.616743 6.61976 49 40 33 0.101189 6 651 7 863 8 1499
57 -0.794495 1.24454 6.38617 173 195 213 0.187951 3 477 2 299 4 354 5 1137
1165 0.223245 0.617546 6.62024 94 94 89 0.212851 6 654 7 857 8 1503
56 -0.849258 1.25495 6.37799 173 193 208 0.220613 3 474 2 297 4 351 5 665
1164 0.271989 0.339714 6.77718 47 42 44 0.360578 6 580 7 842 8 1489
55 -0.967002 1.39 6.28117 113 73 62 0.325819 3 473 2 364 4 431 5 1171
1163 0.145978 -0.321996 7.15639 63 64 68 0.0971311 6 517 7 814 8 1537
54 -1.03068 1.43727 6.27424 144 110 65 0.127437 3 471 2 366
1162 1.30542 4.11155 5.14708 153 169 197 0.14235 6 882 7 803 8 381
53 -1.03068 1.43727 6.27424 144 110 65 0.127437 3 470 2 365
1161 1.33893 4.05453 5.18283 167 170 174 0.0508766 6 875 7 796 8 373
52 -1.24844 1.40081 6.24731 150 178 205 0.374561 3 461 2 285 4 419 5 1195
1160 1.33893 4.05453 5.18283 167 170 174 0.0508766 6 874 7 795 8 372
51 -1.24095 1.37795 6.29278 166 187 207 0.192742 3 460 2 287
1159 0.399465 -0.0018985 6.97453 91 87 78 0.387191 6 537 7 737 8 1468
50 -1.32177 1.33547 6.27598 147 176 206 0.363104 3 457 2 282 4 1171 5 1166
1158 1.53089 4.0577 5.20147 152 172 194 0.508396 1 1239 6 796 7 710
49 -1.34714 1.28637 6.30686 11 39 97 0.456867 3 456 2 281 5 740
1157 1.29275 3.63789 5.4127 178 186 177 0.267525 4 806 7 703 8 437
48 4.28521 0.949782 7.00502 76 39 0 0.361163 3 443 2 550
1156 1.37744 3.70967 5.38446 171 200 212 0.120053 6 789 7 701 8 360
47 -0.649639 1.07643 6.49502 101 113 115 0.202287 3 429 2 305 4 313
1155 1.3988 3.71292 5.37095 171 192 207 0.154145 1 651 7 699 8 358
46 -0.689471 1.04226 6.51346 104 113 115 0.209147 3 424 2 303 4 311 5 614
1154 1.3988 3.71292 5.37095 171 192 207 0.154145 1 650 7 698 8 359
45 -0.751915 0.987549 6.5419 98 111 107 0.365582 3 421 2 301 4 307 5 1118
1153 0.469136 -0.0765437 7.01187 41 44 54 0.18411 6 481 7 657 8 1422
44 -0.964291 1.17215 6.42281 138 99 85 1.10436 3 412 2 295 4 347
1152 0.426383 -0.225487 7.10029 77 89 104 0.127188 6 473 7 652 8 1457
43 1.37428 0.750088 7.583 114 144 163 0.305001 3 392 2 401 5 475
1151 1.59596 4.06117 5.21558 133 145 169 0.0808688 6 1365 7 635 8 265
42 1.99325 0.334619 7.97335 132 132 129 0.263307 3 363 2 404 4 166 6 423
1150 1.14667 0.379252 7.74294 182 47 73 0.411836 6 487 7 615 8 641
41 1.96815 0.240363 7.83083 122 134 138 0.273875 3 361 2 339 4 1074 5 346 6 1149
1149 1.76822 -0.0123733 8.12824 118 107 108 0.518333 6 414 7 518 8 1351
40 2.06205 0.203875 7.6859 135 122 130 0.214551 3 360 2 341 4 1070 5 344 6 381 7 489 8 481
1148 2.06716 -0.579139 7.05993 217 237 251 0.424407 6 238 7 412 8 400
39 1.93889 0.232217 7.85227 46 51 57 0.365653 3 359 2 335 4 163 5 345
1147 3.44537 1.96069 7.21836 207 200 208 0.17932 6 341 7 378 8 1137
38 1.94386 0.214492 7.82336 41 52 58 0.597452 3 356 2 334 1 942 6 1148 7 1346 8 1318
1146 2.51476 -0.452675 7.06803 162 183 194 0.34097 6 239 7 359 8 229
37 1.08972 0.371042 7.75975 191 191 202 0.711804 3 346 2 324 4 202 5 421 1 1321 6 1189 7 1782 8 1406 8 1880
1145 1.37652 3.753 5.35317 140 160 174 0.678009 4 824 1 636 6 1358 3 1547 2 1376 1 1186 7 1803 8 1752
36 1.09488 0.348403 7.76126 146 38 59 0.480366 3 345 2 325 6 488 7 611
1142 2.45395 1.80464 7.17596 24 32 33 1.16197 5 2141 6 2492 9 2846 10 2648
33 0.32438 0.546598 6.66655 21 22 17 1.07401 3 337 2 244 4 230 5 509 6 583 7 1495 8 1898
1140 2.00625 5.0995 5.47744 97 102 134 1.76357 1 1515 6 1928 7 2049 8 2041 9 747
31 0.217949 0.525494 6.66908 17 20 19 0.298156 3 331 2 241 5 510 6 643 7 1499 8 1924
1139 2.00625 5.0995 5.47744 97 102 134 1.76357 1 1514 6 1927 7 2048 8 2042 9 748
30 0.217945 0.525864 6.66686 17 20 19 0.314344 3 330 2 240 5 511 6 644 7 1498
1138 1.80586 -4.45087 9.30964 20 27 31 0.896365 5 1252 6 1782
29 0.0523665 0.556853 6.66602 93 95 86 0.38524 3 329 2 233 4 223 5 513 6 1260 7 1888 8 2192
1136 2.3396 -0.873335 7.13313 168 181 179 1.67974 5 195 6 197 7 1243
27 2.38308 0.0509854 7.46275 132 116 109 0.280266 3 312 2 344 4 102
1135 6.92931 -1.33355 8.50503 57 75 98 0.313845 5 76 6 25 7 31
26 2.00797 0.181057 7.68937 137 126 138 0.493648 3 308 2 337 4 160 5 342 1 181 6 384 7 490 8 482
1134 3.70748 0.700352 7.58656 219 189 64 0.233168 5 2145 6 2499 7 2682
25 1.10103 0.090086 7.98544 123 53 54 0.403235 3 296 2 256 4 146
1133 3.68312 1.3721 7.72743 174 153 128 1.08713 5 2139 6 2489
24 0.34761 0.083231 6.93025 14 18 16 0.410252 3 291 2 1016 4 1050 5 1006 7 2068 8 2156
1132 1.5752 -2.26876 9.21429 16 33 38 0.539357 5 2122 6 2488
23 0.071361 0.124491 6.91613 125 148 159 0.185935 3 287 2 162 4 134 5 457 6 1224 7 1878
1130 4.12923 0.642387 7.04033 209 189 72 0.387553 5 2123 6 2464 7 2652 8 2788
21 0.0120092 0.151454 6.90627 134 156 166 0.188126 3 280 2 160 4 186 5 460 6 1254 7 1881 8 1990
1129 0.255925 -0.259036 7.19053 44 42 36 0.283036 5 2069 6 2446 7 2646
20 2.05791 -0.156078 7.00867 112 123 130 0.604952 3 252 2 261 4 43 6 287 7 459
1128 1.69091 1.01788 7.53403 25 32 36 0.895039 1 2178 6 2441
19 2.0155 -0.169033 7.09383 36 40 51 0.92823 3 251 2 260 1 57
1127 0.35805 -0.46817 7.12194 177 168 160 0.734526 5 2064 6 2413
18 1.95957 -0.197026 7.09457 121 117 129 0.426349 3 249 2 257 4 1006
1126 3.18261 0.729088 7.93794 174 164 152 0.728714 4 2405 6 2411 7 2603 8 2739
17 0.459935 -0.176015 7.06364 54 72 84 0.138747 3 235 2 130 4 81 6 1182 7 1791
1125 7.44337 -4.62121 14.062 19 33 39 0.457115 5 2095 6 2396
16 0.239317 0.0207691 6.97345 14 17 16 0.456472 3 232 2 169 5 416 4 143 6 1580 7 2086 8 2187
1124 2.10408 3.51702 6.19226 186 206 228 0.80568 1 2132 6 2373 7 2576 8 2679
15 0.234716 -0.0196375 6.98309 59 66 55 0.0779277 3 231 2 174
1123 2.66608 1.15991 7.61219 155 144 135 1.00406 3 2616 6 2366 7 2567
14 0.433144 -0.126974 7.03602 125 146 159 0.224349 3 230 2 131 4 83 5 410 6 528 8 1911
1122 2.48863 0.662226 7.84928 165 158 150 0.591318 5 1986 6 2365 9 2529
13 0.382811 -0.135886 7.04214 136 150 160 0.286804 3 229 2 129 4 84 5 409 6 529 7 1441 8 1913
1121 2.188 -0.0359016 7.45574 110 40 40 0.970266 5 2025 6 2360
12 0.395456 -0.241371 7.10388 136 149 161 0.271729 3 227 2 127 4 1027 5 992 6 1181 7 2061 8 2155
1120 1.90105 -0.243306 7.46657 129 41 37 0.21197 5 1982 6 2359 7 2570
11 0.203222 -0.122655 7.04906 22 27 29 0.362294 3 226 2 123 4 79 5 1001 6 1577 8 2183
1119 5.19899 3.72384 6.39012 172 172 168 0.547623 5 2071 6 2355
10 0.202818 -0.122045 7.051 22 27 29 0.310057 3 225 2 124 5 1002 6 1578 8 2184
1118 0.0740353 -0.323285 7.16373 150 168 187 0.653785 5 1944 6 2325 7 2584
9 0.125386 0.0530533 6.94176 10 21 30 1.1273 3 224 2 1007 5 450 7 1839 8 2350 7 2231
1117 1.98964 -0.388464 7.18357 117 37 41 0.608452 5 1936 6 2314 7 2531
8 0.179524 0.0159047 6.95662 15 20 25 0.579436 3 223 2 168 4 140 6 1221
1115 4.01649 0.242811 8.01779 142 133 124 0.628061 5 1886 6 2309 7 2561
6 0.0962784 0.0354518 6.96381 111 130 141 0.135898 3 221 2 164 4 129 6 1215 7 1840 8 1961
540 -0.872686 1.5213 6.17423 186 153 66 1.50402 3 2684 2 2285 4 2414 5 2114
525 2.28583 0.11487 7.78115 106 120 129 1.93605 3 2646 2 2283 4 2398 5 2026 6 2361 9 2626
502 -1.05787 0.976809 6.57258 160 177 188 1.15545 3 2569 2 2172 5 2045
72 2.58989 3.14596 6.42344 102 128 149 0.0466713 3 727 2 783
28 0.0593566 0.527715 6.73371 18 16 17 0.246055 3 328 2 232
22 0.0588762 0.0941155 6.93164 124 151 160 0.180992 3 285 2 161 4 132 8 1966
1 0.204136 -0.276443 7.12386 52 56 49 0.121707 3 168 2 120
1110 1.94907 -0.247896 7.1708 126 122 138 0.910295 5 1888 6 2193 7 2484 8 2599 9 2523
2 0.204136 -0.276443 7.12386 52 56 49 0.121707 3 169 2 121
1111 1.93976 0.626962 7.76426 151 143 140 0.968135 1 2074 6 2202 7 2487 8 2648
3 0.351012 -0.253439 7.10684 62 62 56 0.307856 3 172 2 125 4 74 7 1809 8 1909
1112 -0.827907 0.424752 6.86311 99 81 88 0.208383 5 1834 6 2232 9 2558
4 0.541323 -0.312502 7.14242 32 29 31 0.153804 3 175 2 132
1113 2.55804 4.99969 5.60815 178 176 168 0.968098 4 2308 6 2277 7 2488 8 2591
5 0.541574 -0.308812 7.13697 32 29 31 0.484504 3 176 2 133 4 1512 5 1322
1114 1.4015 3.91496 5.26656 154 172 181 0.42883 4 2303 6 2282 8 2528 9 2278
7 0.162879 0.00736174 7.00857 15 20 25 0.394946 3 222 2 167 6 1213
32 0.268836 0.513074 6.68544 67 69 57 0.100739 3 336 2 243
34 0.325459 0.546523 6.66399 21 22 17 1.11896 3 338 2 245 4 229 5 508 6 586 7 1496 6 582 8 1897
35 0.922492 0.330549 7.76745 67 61 60 0.506915 3 341 2 321
131 0.867126 3.83993 5.22634 168 148 123 0.154332 3 959 2 855
164 2.0533 0.262393 7.81331 41 46 53 0.411474 3 1195 2 405 4 1075 5 983 1 946 6 1152 7 1308 8 485 9 309
187 2.80146 2.14597 7.0105 153 178 195 0.489469 3 1328 2 1598 4 1616
202 -0.98197 2.85263 5.81876 184 164 152 0.198075 3 1381 2 558
208 -0.635731 2.99084 5.79308 63 60 86 0.315382 3 1393 2 603 4 635 1 376
210 -0.503888 3.16556 5.73554 148 158 176 0.132036 3 1405 2 637
222 0.660554 3.55324 5.3928 137 133 131 0.350777 3 1484 2 744 4 1336 1 1109 8 1389 9 719
223 0.75565 3.54567 5.39438 103 107 93 0.183415 3 1487 2 1324 4 1339 1 533 7 1892 9 714
232 -0.284104 3.77048 5.48164 199 165 181 0.241722 3 1513 2 1307 4 1413 1 498
238 0.808581 3.69249 5.32751 48 54 78 0.421078 3 1519 2 807 4 786 1 1128 8 1372
239 1.03463 3.71398 5.35357 126 119 101 0.156564 3 1522 2 1342 8 1335
240 0.960913 3.76666 5.3114 95 58 47 0.304685 3 1524 2 1340 4 858 1 610 7 1522
241 0.98348 3.78215 5.31327 152 139 102 0.322502 3 1525 2 1353 4 1391 1 612
242 1.33998 3.67394 5.39649 94 109 134 0.341175 3 1526 2 1367 4 1355 1 626 6 1353 7 1427 8 1232
243 1.33998 3.67394 5.39649 94 109 134 0.341175 3 1527 2 1366 4 1354 1 625 6 1352 7 1428 8 1233
244 1.31726 3.71694 5.37424 76 94 125 0.414001 3 1529 2 1365 4 1358 1 1179 7 1432 8 1236
245 1.21635 3.72818 5.36744 166 187 208 0.354647 3 1531 2 876 4 1351 1 1170 6 1394 8 1288
246 1.29921 3.74181 5.35919 161 187 208 0.240775 3 1534 2 1364 4 1369 1 1178 6 1667 7 1465 8 1287
247 1.3398 3.73075 5.36688 162 187 210 0.173627 3 1535 2 1369 4 1370 1 1181 6 1665 7 1429 8 1238
248 1.3398 3.73075 5.36688 162 187 210 0.173627 3 1536 2 1370 4 1371 1 1182 6 1666 7 1430 8 1239
249 1.34171 3.74969 5.35647 85 82 95 0.254375 3 1537 2 1373 4 818 1 634 6 1363 7 1431 8 1240
250 1.3749 3.68785 5.38892 162 187 211 0.291158 3 1540 2 1368 4 1360 1 1188 8 1230
251 1.38775 3.71788 5.37428 162 188 208 0.215902 3 1541 2 1374 4 1366 1 1185 6 1661 7 1799 8 1750
252 1.47252 3.6667 5.41022 149 174 197 0.419202 3 1543 2 1380 4 1363 5 1208 1 1192 6 1315
253 1.51834 3.69048 5.42162 56 74 103 0.32354 3 1544 2 1381 4 1373 5 1449 1 1196
254 1.51948 3.68644 5.41538 56 74 103 0.167244 3 1545 2 1382 1 1197
255 1.37652 3.753 5.35317 144 165 184 0.678009 3 1546 2 1377 4 823 1 635 1 1187 6 1357 7 1802 8 1751
257 1.37111 3.80085 5.32434 171 158 117 0.146544 3 1548 2 1375 1 708
542 2.02088 1.70809 7.18154 154 187 202 0.922494 3 2686 2 2311 4 2436 1 2202 6 2444 7 2664 6 2471 8 2771 10 2609
543 1.25537 1.95137 6.96597 157 188 204 0.988777 3 2687 2 2308 4 2439 5 2109 1 2200 6 2450 6 2476 7 2671 8 2780 9 2769 10 2559
544 1.25537 1.95137 6.96597 157 188 204 0.988777 3 2688 2 2309 4 2440 5 2108 1 2199 6 2449 6 2475 7 2670 8 2781 9 2768 10 2558
545 2.26896 1.95486 7.04686 15 25 28 1.44555 3 2689 2 2312 4 2437 5 2102 1 2203 6 2437 7 2638 8 2744 1 2184
546 2.26896 1.95486 7.04686 15 25 28 1.44555 3 2690 2 2313 4 2438 5 2103 1 2204 6 2438 7 2639 8 2745 1 2185
549 -1.2776 2.5214 6.58444 161 34 37 0.964577 3 2695 2 2286
550 1.11879 2.68626 6.57628 19 29 34 0.630074 3 2696 2 2317 4 2445
551 1.9432 3.39527 6.23532 16 23 27 1.66919 2 2296 4 2418 5 2049 6 2423 7 2610 8 2713 9 2641
552 1.9432 3.39527 6.23532 16 23 27 1.66919 2 2297 4 2419 5 2048 6 2424 7 2611 8 2714 9 2642
553 -0.553862 3.5268 5.61916 150 19 21 1.03468 3 2701 2 2318 4 2448 1 2188
554 2.11699 3.71018 6.1015 169 14 19 1.68489 3 2702 2 2321 4 2446 5 2115 1 2189 6 2453 8 2712 9 2704
555 4.13259 0.636414 7.05391 180 162 56 0.376874 3 2708 2 2340 4 2455
556 -0.786678 1.36064 6.50774 110 129 147 0.917505 3 2711 2 2302 4 2457
557 3.00946 2.17753 7.12999 13 24 24 2.01052 3 2713 2 2343 4 2468 1 2219
558 1.33092 2.44159 6.68328 160 187 207 1.57756 3 2714 2 2326 5 2126 1 2205 6 2477 2 2314 7 2672 8 2775 9 2817
560 1.83226 2.41171 6.77902 13 23 26 0.430025 3 2717 2 2328
561 2.72805 2.49941 6.82593 15 23 24 0.55233 3 2718 2 2332 4 2458
562 2.2599 3.40426 6.21962 156 181 202 1.28227 3 2720 2 2334 4 2459 5 2129 1 2215 6 2474 8 2769
563 -1.61101 -1.2675 8.87473 6 22 32 0.824516 3 2722 2 2337 4 2471
565 2.37004 2.30352 6.87165 149 180 196 1.64314 3 2725 2 2342 4 2469 5 2142 1 2218 6 2493 9 2848
567 1.19214 0.881985 7.16788 155 183 200 0.968831 3 2733 2 2344
568 4.47183 1.23661 7.53749 87 77 67 1.76956 3 2734 2 2350 4 2473 1 2225 5 2137 6 2466
569 0.450053 1.68491 6.78279 157 181 195 0.0718882 3 2735 4 2475
571 1.44453 2.19106 6.92253 159 186 206 1.64737 3 2737 2 2348 4 2476 1 2222 8 2806
572 0.0936483 3.21481 6.19846 162 158 160 1.36641 3 2738 2 2351 1 2226
573 3.73039 0.686186 7.62376 185 159 63 1.70626 3 2741 2 2357 5 2144 6 2500
574 -0.472454 1.79744 6.17337 39 45 58 0.840676 3 2745 2 2355
575 1.9032 2.87773 6.53221 15 21 21 0.625018 3 2747 2 2361 4 2489 1 2243
576 -0.262199 3.57085 5.77284 57 38 51 0.661724 3 2748 2 2360 1 2237
577 -0.262199 3.57085 5.77284 57 38 51 0.661724 3 2749 2 2359 1 2236
578 1.91935 -0.275122 7.05809 138 129 134 0.673703 3 180 4 13 5 267
579 1.95991 -0.216514 7.06092 45 38 50 0.806769 3 246 4 32 5 301 6 330
580 1.95991 -0.216514 7.06092 45 38 50 0.806769 3 247 4 33 6 331 5 302
581 1.91079 -0.222725 7.16232 148 128 135 0.424359 3 245 4 34 5 299 6 329 7 461 8 420
582 1.9851 -0.208 7.02845 133 131 138 0.402618 3 248 4 38 5 272 6 283 7 458
583 2.00893 -0.204186 7.01325 59 32 44 0.469219 2 258 3 1135 4 39 5 271 6 284 8 1268
584 2.07404 -0.163581 6.9882 32 30 38 1.17197 3 255 4 42 1 58
585 2.20427 -0.149024 6.93304 136 122 127 1.08934 3 256 4 44 1 124
586 0.151153 -0.362146 7.16819 35 36 43 0.411001 3 165 4 64 5 401 6 1197 7 1832 8 1953 9 414
587 0.460628 -0.177102 7.06464 67 85 99 0.168156 3 236 4 82 6 1183 8 1890
588 0.520015 -0.229898 7.09746 148 171 178 0.261476 3 237 4 86 5 381 6 474 7 1396 8 1884
589 -0.00318228 0.116284 6.91557 137 161 169 0.214975 3 278 4 126 6 1253 7 1877 8 1991
590 -0.00352767 0.115904 6.91819 137 161 169 0.157233 3 277 4 127 5 447 6 1252 7 1876
591 0.0608537 0.0680643 6.94374 47 65 77 0.22116 3 283 4 128 5 453 7 1872 8 1963
592 0.0165056 0.0882199 6.93635 134 161 172 0.154184 3 276 4 130 5 446 6 1218 7 1875 8 1987
593 0.0573817 0.0935375 6.93213 136 156 169 0.217675 3 286 4 133 5 454 6 1217 7 1873 8 1965
594 0.0478867 0.153681 6.89779 132 156 170 0.179864 3 281 4 135 5 461 6 1225 7 1880 8 1968
595 0.048618 0.155318 6.89092 132 156 170 0.144144 3 282 4 136 5 462
596 0.165763 0.0590215 6.93956 18 21 20 0.63429 2 166 4 144 5 451 3 288 6 1222 7 1838
597 1.88008 0.0960926 7.72756 151 136 150 0.210012 3 303 4 153 5 335 6 1138 7 1329 8 1315 9 300
598 1.87837 0.0936575 7.72555 151 136 150 0.519227 3 302 4 154 5 334 1 117 6 1137 7 1328 8 1314 9 299
599 1.9208 0.209695 7.84453 125 133 139 0.288602 3 353 4 158 5 340 6 417 7 525 8 492
600 1.9208 0.209695 7.84453 125 133 139 0.288602 3 354 4 159 5 341 6 418 7 524 8 493
601 2.01054 0.182626 7.69727 141 130 138 0.203926 3 309 4 161 5 343 8 483
602 -0.0125239 0.148465 6.90808 21 38 52 0.195207 3 279 4 185 5 449 6 1256
603 0.376572 0.472858 6.71202 16 19 12 0.707319 2 248 4 199 5 1029 6 1240
604 -0.0677243 0.488327 6.70707 61 70 62 0.371877 3 321 4 220 5 501 6 1622 7 1901 8 1993
605 -0.0677255 0.487157 6.71363 61 70 62 0.311249 3 322 4 221 6 1623 7 1902
606 0.187025 0.495697 6.69306 69 74 62 0.251835 3 326 4 228 5 504 6 1258 7 1852
607 0.347317 0.609721 6.62868 87 89 77 0.261524 2 246 4 238 5 517 6 1243 7 1854 8 2135
608 -0.93286 0.789968 6.65024 107 120 108 0.18117 3 1210 4 292 5 1098
609 -0.93286 0.789968 6.65024 107 120 108 0.18117 3 1211 4 293 5 1099
610 -1.00225 0.855598 6.6062 94 149 197 0.496815 3 376 4 294 5 602
611 -0.821681 0.916934 6.58787 99 112 121 0.174671 3 413 4 300 5 606
612 -0.74703 1.01746 6.51476 6 44 80 0.285512 3 416 4 309 5 1120
613 -0.690759 1.04259 6.51308 102 116 118 0.265584 3 425 4 310 5 615 6 1412
614 -0.650309 1.07705 6.49271 97 109 110 0.230906 3 428 4 312 5 1121 6 1415
615 1.96806 1.50755 7.29714 21 37 51 0.761881 2 509 4 327
616 -0.843438 1.28478 6.35668 82 72 72 0.161526 3 475 4 353 5 671
617 -0.787347 1.27326 6.37852 75 99 130 0.270886 2 372 4 356 5 668
618 -0.787347 1.27326 6.37852 75 99 130 0.270886 2 373 4 357 5 669
619 -0.732459 1.28948 6.35719 164 194 216 0.191801 3 481 4 358 5 679
620 -0.714745 1.28023 6.3711 103 129 148 0.380168 3 480 4 359 5 677
621 -0.773182 1.30743 6.33963 165 194 217 0.363354 3 478 4 361 5 673
622 -0.741879 1.33212 6.33006 163 193 213 0.282234 3 484 4 362 5 686
623 -0.593335 1.38532 6.2909 94 121 141 0.25081 3 497 4 368 5 697
624 -0.469507 1.36711 6.33433 0 23 65 0.930454 3 1748 4 373 5 1418
625 -0.493033 1.38897 6.31972 139 136 110 0.182116 3 499 4 374 5 627
626 3.85629 2.24272 7.07024 90 83 75 0.0639257 2 703 4 396 1 519
627 -1.2473 1.40095 6.2415 150 179 209 0.414635 3 462 4 418 5 1194
628 -1.217 1.42827 6.22341 146 174 208 0.352711 3 463 4 420 5 782
629 -1.16934 1.41145 6.24499 48 59 86 0.359694 3 464 4 422 5 1167
630 -1.17218 1.43365 6.23661 150 182 206 0.373502 3 465 4 424 5 1168
631 -1.16065 1.45343 6.21758 49 77 106 0.437197 3 528 4 426 5 748
632 -0.668275 1.39449 6.29719 165 193 207 0.296362 3 494 4 433 5 1145
633 -0.641319 1.42 6.27901 166 194 204 0.326533 3 495 4 436 5 700
634 -1.06602 1.55598 6.15961 12 37 87 0.394916 3 535 4 476 5 786
635 -0.863573 1.75829 6.12779 91 114 138 0.378342 3 573 4 484 5 794
636 0.331507 2.19754 6.68644 167 199 216 0.212285 2 529 4 527
637 2.69645 3.03531 6.48294 111 136 157 0.467398 2 790 4 543 1 545
638 2.69645 3.03531 6.48294 111 136 157 0.467398 2 791 4 544 1 544
639 5.11642 3.92733 6.40141 128 130 113 0.831573 3 943 4 565 1 1273
640 -0.95699 2.84322 5.82447 88 59 63 0.191461 2 559 4 615 1 344
641 -0.976411 2.85002 5.81271 187 166 154 0.351037 2 557 4 617 1 342
642 -0.971361 2.87309 5.80913 109 79 75 0.229447 2 560 4 621 1 343
643 -0.688712 2.95423 5.80538 151 161 187 0.197403 3 712 4 633 1 371
644 -0.748849 3.02971 5.76163 92 85 116 0.409461 3 708 4 663 1 369
645 -0.748849 3.02971 5.76163 92 85 116 0.409461 3 709 4 664 1 370
646 -0.710499 3.11559 5.72421 93 73 99 0.147084 3 735 4 665 1 397
647 -0.710499 3.11559 5.72421 93 73 99 0.147084 3 736 4 666 1 398
648 1.03878 3.53187 5.44448 93 106 96 0.131603 3 833 4 701 1 581
649 1.06819 3.5257 5.44836 95 102 101 0.354066 2 766 3 834 4 702 1 583 8 506
650 1.06878 3.525 5.44924 95 102 101 0.101047 3 835 4 703 1 582
651 1.11871 3.51645 5.45847 93 103 93 0.288817 3 837 4 710 1 584 8 504
652 1.4393 3.6181 5.42449 94 119 140 0.278909 3 849 4 716 8 341
653 1.43979 3.61942 5.42505 94 119 140 0.297581 2 828 3 850 4 717 8 340 7 1412
654 0.544009 3.59674 5.45059 101 146 185 0.3098 3 820 4 770 1 1107
655 0.80836 3.6432 5.35037 12 43 94 0.166969 3 877 4 785 7 1000
656 0.884162 3.58552 5.39578 69 155 200 0.428454 2 1326 4 789 1 1133 3 1882 7 1516 8 1362
657 0.985601 3.55824 5.42607 13 28 56 0.48825 2 759 4 791 1 576 8 512
